   0.0000000e+00   0.0000000e+00   1.1000000e+02
   0.0000000e+00   5.0000000e+00   1.1238468e+02
   0.0000000e+00   1.0000000e+01   1.1471608e+02
   0.0000000e+00   1.5000000e+01   1.1694214e+02
   0.0000000e+00   2.0000000e+01   1.1901312e+02
   0.0000000e+00   2.5000000e+01   1.2088276e+02
   0.0000000e+00   3.0000000e+01   1.2250930e+02
   0.0000000e+00   3.5000000e+01   1.2385641e+02
   0.0000000e+00   4.0000000e+01   1.2489398e+02
   0.0000000e+00   4.5000000e+01   1.2559885e+02
   0.0000000e+00   5.0000000e+01   1.2595526e+02
   0.0000000e+00   5.5000000e+01   1.2595526e+02
   0.0000000e+00   6.0000000e+01   1.2559885e+02
   0.0000000e+00   6.5000000e+01   1.2489398e+02
   0.0000000e+00   7.0000000e+01   1.2385641e+02
   0.0000000e+00   7.5000000e+01   1.2250930e+02
   0.0000000e+00   8.0000000e+01   1.2088276e+02
   0.0000000e+00   8.5000000e+01   1.1901312e+02
   0.0000000e+00   9.0000000e+01   1.1694214e+02
   0.0000000e+00   9.5000000e+01   1.1471608e+02
   0.0000000e+00   1.0000000e+02   1.1238468e+02
   1.0000000e+01   0.0000000e+00   1.1813473e+02
   1.0000000e+01   5.0000000e+00   1.2051941e+02
   1.0000000e+01   1.0000000e+01   1.2285082e+02
   1.0000000e+01   1.5000000e+01   1.2507687e+02
   1.0000000e+01   2.0000000e+01   1.2714785e+02
   1.0000000e+01   2.5000000e+01   1.2901750e+02
   1.0000000e+01   3.0000000e+01   1.3064404e+02
   1.0000000e+01   3.5000000e+01   1.3199114e+02
   1.0000000e+01   4.0000000e+01   1.3302871e+02
   1.0000000e+01   4.5000000e+01   1.3373358e+02
   1.0000000e+01   5.0000000e+01   1.3408999e+02
   1.0000000e+01   5.5000000e+01   1.3408999e+02
   1.0000000e+01   6.0000000e+01   1.3373358e+02
   1.0000000e+01   6.5000000e+01   1.3302871e+02
   1.0000000e+01   7.0000000e+01   1.3199114e+02
   1.0000000e+01   7.5000000e+01   1.3064404e+02
   1.0000000e+01   8.0000000e+01   1.2901750e+02
   1.0000000e+01   8.5000000e+01   1.2714785e+02
   1.0000000e+01   9.0000000e+01   1.2507687e+02
   1.0000000e+01   9.5000000e+01   1.2285082e+02
   1.0000000e+01   1.0000000e+02   1.2051941e+02
   2.0000000e+01   0.0000000e+00   1.2486290e+02
   2.0000000e+01   5.0000000e+00   1.2724757e+02
   2.0000000e+01   1.0000000e+01   1.2957898e+02
   2.0000000e+01   1.5000000e+01   1.3180504e+02
   2.0000000e+01   2.0000000e+01   1.3387602e+02
   2.0000000e+01   2.5000000e+01   1.3574566e+02
   2.0000000e+01   3.0000000e+01   1.3737220e+02
   2.0000000e+01   3.5000000e+01   1.3871930e+02
   2.0000000e+01   4.0000000e+01   1.3975688e+02
   2.0000000e+01   4.5000000e+01   1.4046174e+02
   2.0000000e+01   5.0000000e+01   1.4081816e+02
   2.0000000e+01   5.5000000e+01   1.4081816e+02
   2.0000000e+01   6.0000000e+01   1.4046174e+02
   2.0000000e+01   6.5000000e+01   1.3975688e+02
   2.0000000e+01   7.0000000e+01   1.3871930e+02
   2.0000000e+01   7.5000000e+01   1.3737220e+02
   2.0000000e+01   8.0000000e+01   1.3574566e+02
   2.0000000e+01   8.5000000e+01   1.3387602e+02
   2.0000000e+01   9.0000000e+01   1.3180504e+02
   2.0000000e+01   9.5000000e+01   1.2957898e+02
   2.0000000e+01   1.0000000e+02   1.2724757e+02
   3.0000000e+01   0.0000000e+00   1.2902113e+02
   3.0000000e+01   5.0000000e+00   1.3140581e+02
   3.0000000e+01   1.0000000e+01   1.3373721e+02
   3.0000000e+01   1.5000000e+01   1.3596327e+02
   3.0000000e+01   2.0000000e+01   1.3803425e+02
   3.0000000e+01   2.5000000e+01   1.3990389e+02
   3.0000000e+01   3.0000000e+01   1.4153043e+02
   3.0000000e+01   3.5000000e+01   1.4287754e+02
   3.0000000e+01   4.0000000e+01   1.4391511e+02
   3.0000000e+01   4.5000000e+01   1.4461998e+02
   3.0000000e+01   5.0000000e+01   1.4497639e+02
   3.0000000e+01   5.5000000e+01   1.4497639e+02
   3.0000000e+01   6.0000000e+01   1.4461998e+02
   3.0000000e+01   6.5000000e+01   1.4391511e+02
   3.0000000e+01   7.0000000e+01   1.4287754e+02
   3.0000000e+01   7.5000000e+01   1.4153043e+02
   3.0000000e+01   8.0000000e+01   1.3990389e+02
   3.0000000e+01   8.5000000e+01   1.3803425e+02
   3.0000000e+01   9.0000000e+01   1.3596327e+02
   3.0000000e+01   9.5000000e+01   1.3373721e+02
   3.0000000e+01   1.0000000e+02   1.3140581e+02
   4.0000000e+01   0.0000000e+00   1.2989044e+02
   4.0000000e+01   5.0000000e+00   1.3227511e+02
   4.0000000e+01   1.0000000e+01   1.3460652e+02
   4.0000000e+01   1.5000000e+01   1.3683258e+02
   4.0000000e+01   2.0000000e+01   1.3890356e+02
   4.0000000e+01   2.5000000e+01   1.4077320e+02
   4.0000000e+01   3.0000000e+01   1.4239974e+02
   4.0000000e+01   3.5000000e+01   1.4374684e+02
   4.0000000e+01   4.0000000e+01   1.4478442e+02
   4.0000000e+01   4.5000000e+01   1.4548928e+02
   4.0000000e+01   5.0000000e+01   1.4584570e+02
   4.0000000e+01   5.5000000e+01   1.4584570e+02
   4.0000000e+01   6.0000000e+01   1.4548928e+02
   4.0000000e+01   6.5000000e+01   1.4478442e+02
   4.0000000e+01   7.0000000e+01   1.4374684e+02
   4.0000000e+01   7.5000000e+01   1.4239974e+02
   4.0000000e+01   8.0000000e+01   1.4077320e+02
   4.0000000e+01   8.5000000e+01   1.3890356e+02
   4.0000000e+01   9.0000000e+01   1.3683258e+02
   4.0000000e+01   9.5000000e+01   1.3460652e+02
   4.0000000e+01   1.0000000e+02   1.3227511e+02
   5.0000000e+01   0.0000000e+00   1.2732051e+02
   5.0000000e+01   5.0000000e+00   1.2970518e+02
   5.0000000e+01   1.0000000e+01   1.3203659e+02
   5.0000000e+01   1.5000000e+01   1.3426265e+02
   5.0000000e+01   2.0000000e+01   1.3633363e+02
   5.0000000e+01   2.5000000e+01   1.3820327e+02
   5.0000000e+01   3.0000000e+01   1.3982981e+02
   5.0000000e+01   3.5000000e+01   1.4117691e+02
   5.0000000e+01   4.0000000e+01   1.4221449e+02
   5.0000000e+01   4.5000000e+01   1.4291935e+02
   5.0000000e+01   5.0000000e+01   1.4327577e+02
   5.0000000e+01   5.5000000e+01   1.4327577e+02
   5.0000000e+01   6.0000000e+01   1.4291935e+02
   5.0000000e+01   6.5000000e+01   1.4221449e+02
   5.0000000e+01   7.0000000e+01   1.4117691e+02
   5.0000000e+01   7.5000000e+01   1.3982981e+02
   5.0000000e+01   8.0000000e+01   1.3820327e+02
   5.0000000e+01   8.5000000e+01   1.3633363e+02
   5.0000000e+01   9.0000000e+01   1.3426265e+02
   5.0000000e+01   9.5000000e+01   1.3203659e+02
   5.0000000e+01   1.0000000e+02   1.2970518e+02
   6.0000000e+01   0.0000000e+00   1.2175571e+02
   6.0000000e+01   5.0000000e+00   1.2414038e+02
   6.0000000e+01   1.0000000e+01   1.2647179e+02
   6.0000000e+01   1.5000000e+01   1.2869784e+02
   6.0000000e+01   2.0000000e+01   1.3076883e+02
   6.0000000e+01   2.5000000e+01   1.3263847e+02
   6.0000000e+01   3.0000000e+01   1.3426501e+02
   6.0000000e+01   3.5000000e+01   1.3561211e+02
   6.0000000e+01   4.0000000e+01   1.3664969e+02
   6.0000000e+01   4.5000000e+01   1.3735455e+02
   6.0000000e+01   5.0000000e+01   1.3771097e+02
   6.0000000e+01   5.5000000e+01   1.3771097e+02
   6.0000000e+01   6.0000000e+01   1.3735455e+02
   6.0000000e+01   6.5000000e+01   1.3664969e+02
   6.0000000e+01   7.0000000e+01   1.3561211e+02
   6.0000000e+01   7.5000000e+01   1.3426501e+02
   6.0000000e+01   8.0000000e+01   1.3263847e+02
   6.0000000e+01   8.5000000e+01   1.3076883e+02
   6.0000000e+01   9.0000000e+01   1.2869784e+02
   6.0000000e+01   9.5000000e+01   1.2647179e+02
   6.0000000e+01   1.0000000e+02   1.2414038e+02
   7.0000000e+01   0.0000000e+00   1.1415823e+02
   7.0000000e+01   5.0000000e+00   1.1654291e+02
   7.0000000e+01   1.0000000e+01   1.1887432e+02
   7.0000000e+01   1.5000000e+01   1.2110037e+02
   7.0000000e+01   2.0000000e+01   1.2317135e+02
   7.0000000e+01   2.5000000e+01   1.2504100e+02
   7.0000000e+01   3.0000000e+01   1.2666754e+02
   7.0000000e+01   3.5000000e+01   1.2801464e+02
   7.0000000e+01   4.0000000e+01   1.2905221e+02
   7.0000000e+01   4.5000000e+01   1.2975708e+02
   7.0000000e+01   5.0000000e+01   1.3011349e+02
   7.0000000e+01   5.5000000e+01   1.3011349e+02
   7.0000000e+01   6.0000000e+01   1.2975708e+02
   7.0000000e+01   6.5000000e+01   1.2905221e+02
   7.0000000e+01   7.0000000e+01   1.2801464e+02
   7.0000000e+01   7.5000000e+01   1.2666754e+02
   7.0000000e+01   8.0000000e+01   1.2504100e+02
   7.0000000e+01   8.5000000e+01   1.2317135e+02
   7.0000000e+01   9.0000000e+01   1.2110037e+02
   7.0000000e+01   9.5000000e+01   1.1887432e+02
   7.0000000e+01   1.0000000e+02   1.1654291e+02
   8.0000000e+01   0.0000000e+00   1.0584177e+02
   8.0000000e+01   5.0000000e+00   1.0822644e+02
   8.0000000e+01   1.0000000e+01   1.1055785e+02
   8.0000000e+01   1.5000000e+01   1.1278391e+02
   8.0000000e+01   2.0000000e+01   1.1485489e+02
   8.0000000e+01   2.5000000e+01   1.1672453e+02
   8.0000000e+01   3.0000000e+01   1.1835107e+02
   8.0000000e+01   3.5000000e+01   1.1969817e+02
   8.0000000e+01   4.0000000e+01   1.2073575e+02
   8.0000000e+01   4.5000000e+01   1.2144061e+02
   8.0000000e+01   5.0000000e+01   1.2179703e+02
   8.0000000e+01   5.5000000e+01   1.2179703e+02
   8.0000000e+01   6.0000000e+01   1.2144061e+02
   8.0000000e+01   6.5000000e+01   1.2073575e+02
   8.0000000e+01   7.0000000e+01   1.1969817e+02
   8.0000000e+01   7.5000000e+01   1.1835107e+02
   8.0000000e+01   8.0000000e+01   1.1672453e+02
   8.0000000e+01   8.5000000e+01   1.1485489e+02
   8.0000000e+01   9.0000000e+01   1.1278391e+02
   8.0000000e+01   9.5000000e+01   1.1055785e+02
   8.0000000e+01   1.0000000e+02   1.0822644e+02
   9.0000000e+01   0.0000000e+00   9.8244295e+01
   9.0000000e+01   5.0000000e+00   1.0062897e+02
   9.0000000e+01   1.0000000e+01   1.0296038e+02
   9.0000000e+01   1.5000000e+01   1.0518643e+02
   9.0000000e+01   2.0000000e+01   1.0725742e+02
   9.0000000e+01   2.5000000e+01   1.0912706e+02
   9.0000000e+01   3.0000000e+01   1.1075360e+02
   9.0000000e+01   3.5000000e+01   1.1210070e+02
   9.0000000e+01   4.0000000e+01   1.1313827e+02
   9.0000000e+01   4.5000000e+01   1.1384314e+02
   9.0000000e+01   5.0000000e+01   1.1419956e+02
   9.0000000e+01   5.5000000e+01   1.1419956e+02
   9.0000000e+01   6.0000000e+01   1.1384314e+02
   9.0000000e+01   6.5000000e+01   1.1313827e+02
   9.0000000e+01   7.0000000e+01   1.1210070e+02
   9.0000000e+01   7.5000000e+01   1.1075360e+02
   9.0000000e+01   8.0000000e+01   1.0912706e+02
   9.0000000e+01   8.5000000e+01   1.0725742e+02
   9.0000000e+01   9.0000000e+01   1.0518643e+02
   9.0000000e+01   9.5000000e+01   1.0296038e+02
   9.0000000e+01   1.0000000e+02   1.0062897e+02
