   0.0000000e+00   0.0000000e+00  22.00
   0.0000000e+00   5.0000000e+00  23.67
   0.0000000e+00   1.0000000e+01  25.30
   0.0000000e+00   1.5000000e+01  26.86
   0.0000000e+00   2.0000000e+01  28.31
   0.0000000e+00   2.5000000e+01  29.62
   0.0000000e+00   3.0000000e+01  30.76
   0.0000000e+00   3.5000000e+01  31.70
   0.0000000e+00   4.0000000e+01  32.43
   0.0000000e+00   4.5000000e+01  32.92
   0.0000000e+00   5.0000000e+01  33.17
   0.0000000e+00   5.5000000e+01  33.17
   0.0000000e+00   6.0000000e+01  32.92
   0.0000000e+00   6.5000000e+01  32.43
   0.0000000e+00   7.0000000e+01  31.70
   0.0000000e+00   7.5000000e+01  30.76
   0.0000000e+00   8.0000000e+01  29.62
   0.0000000e+00   8.5000000e+01  28.31
   0.0000000e+00   9.0000000e+01  26.86
   0.0000000e+00   9.5000000e+01  25.30
   0.0000000e+00   1.0000000e+02  23.67
   1.0000000e+01   0.0000000e+00  27.69
   1.0000000e+01   5.0000000e+00  29.36
   1.0000000e+01   1.0000000e+01  31.00
   1.0000000e+01   1.5000000e+01  32.55
   1.0000000e+01   2.0000000e+01  34.00
   1.0000000e+01   2.5000000e+01  35.31
   1.0000000e+01   3.0000000e+01  36.45
   1.0000000e+01   3.5000000e+01  37.39
   1.0000000e+01   4.0000000e+01  38.12
   1.0000000e+01   4.5000000e+01  38.61
   1.0000000e+01   5.0000000e+01  38.86
   1.0000000e+01   5.5000000e+01  38.86
   1.0000000e+01   6.0000000e+01  38.61
   1.0000000e+01   6.5000000e+01  38.12
   1.0000000e+01   7.0000000e+01  37.39
   1.0000000e+01   7.5000000e+01  36.45
   1.0000000e+01   8.0000000e+01  35.31
   1.0000000e+01   8.5000000e+01  34.00
   1.0000000e+01   9.0000000e+01  32.55
   1.0000000e+01   9.5000000e+01  31.00
   1.0000000e+01   1.0000000e+02  29.36
   2.0000000e+01   0.0000000e+00  32.40
   2.0000000e+01   5.0000000e+00  34.07
   2.0000000e+01   1.0000000e+01  35.71
   2.0000000e+01   1.5000000e+01  37.26
   2.0000000e+01   2.0000000e+01  38.71
   2.0000000e+01   2.5000000e+01  40.02
   2.0000000e+01   3.0000000e+01  41.16
   2.0000000e+01   3.5000000e+01  42.10
   2.0000000e+01   4.0000000e+01  42.83
   2.0000000e+01   4.5000000e+01  43.32
   2.0000000e+01   5.0000000e+01  43.57
   2.0000000e+01   5.5000000e+01  43.57
   2.0000000e+01   6.0000000e+01  43.32
   2.0000000e+01   6.5000000e+01  42.83
   2.0000000e+01   7.0000000e+01  42.10
   2.0000000e+01   7.5000000e+01  41.16
   2.0000000e+01   8.0000000e+01  40.02
   2.0000000e+01   8.5000000e+01  38.71
   2.0000000e+01   9.0000000e+01  37.26
   2.0000000e+01   9.5000000e+01  35.71
   2.0000000e+01   1.0000000e+02  34.07
   3.0000000e+01   0.0000000e+00  35.31
   3.0000000e+01   5.0000000e+00  36.98
   3.0000000e+01   1.0000000e+01  38.62
   3.0000000e+01   1.5000000e+01  40.17
   3.0000000e+01   2.0000000e+01  41.62
   3.0000000e+01   2.5000000e+01  42.93
   3.0000000e+01   3.0000000e+01  44.07
   3.0000000e+01   3.5000000e+01  45.01
   3.0000000e+01   4.0000000e+01  45.74
   3.0000000e+01   4.5000000e+01  46.23
   3.0000000e+01   5.0000000e+01  46.48
   3.0000000e+01   5.5000000e+01  46.48
   3.0000000e+01   6.0000000e+01  46.23
   3.0000000e+01   6.5000000e+01  45.74
   3.0000000e+01   7.0000000e+01  45.01
   3.0000000e+01   7.5000000e+01  44.07
   3.0000000e+01   8.0000000e+01  42.93
   3.0000000e+01   8.5000000e+01  41.62
   3.0000000e+01   9.0000000e+01  40.17
   3.0000000e+01   9.5000000e+01  38.62
   3.0000000e+01   1.0000000e+02  36.98
   4.0000000e+01   0.0000000e+00  35.92
   4.0000000e+01   5.0000000e+00  37.59
   4.0000000e+01   1.0000000e+01  39.22
   4.0000000e+01   1.5000000e+01  40.78
   4.0000000e+01   2.0000000e+01  42.23
   4.0000000e+01   2.5000000e+01  43.54
   4.0000000e+01   3.0000000e+01  44.68
   4.0000000e+01   3.5000000e+01  45.62
   4.0000000e+01   4.0000000e+01  46.35
   4.0000000e+01   4.5000000e+01  46.84
   4.0000000e+01   5.0000000e+01  47.09
   4.0000000e+01   5.5000000e+01  47.09
   4.0000000e+01   6.0000000e+01  46.84
   4.0000000e+01   6.5000000e+01  46.35
   4.0000000e+01   7.0000000e+01  45.62
   4.0000000e+01   7.5000000e+01  44.68
   4.0000000e+01   8.0000000e+01  43.54
   4.0000000e+01   8.5000000e+01  42.23
   4.0000000e+01   9.0000000e+01  40.78
   4.0000000e+01   9.5000000e+01  39.22
   4.0000000e+01   1.0000000e+02  37.59
   5.0000000e+01   0.0000000e+00  34.12
   5.0000000e+01   5.0000000e+00  35.79
   5.0000000e+01   1.0000000e+01  37.43
   5.0000000e+01   1.5000000e+01  38.98
   5.0000000e+01   2.0000000e+01  40.43
   5.0000000e+01   2.5000000e+01  41.74
   5.0000000e+01   3.0000000e+01  42.88
   5.0000000e+01   3.5000000e+01  43.82
   5.0000000e+01   4.0000000e+01  44.55
   5.0000000e+01   4.5000000e+01  45.04
   5.0000000e+01   5.0000000e+01  45.29
   5.0000000e+01   5.5000000e+01  45.29
   5.0000000e+01   6.0000000e+01  45.04
   5.0000000e+01   6.5000000e+01  44.55
   5.0000000e+01   7.0000000e+01  43.82
   5.0000000e+01   7.5000000e+01  42.88
   5.0000000e+01   8.0000000e+01  41.74
   5.0000000e+01   8.5000000e+01  40.43
   5.0000000e+01   9.0000000e+01  38.98
   5.0000000e+01   9.5000000e+01  37.43
   5.0000000e+01   1.0000000e+02  35.79
   6.0000000e+01   0.0000000e+00  30.23
   6.0000000e+01   5.0000000e+00  31.90
   6.0000000e+01   1.0000000e+01  33.53
   6.0000000e+01   1.5000000e+01  35.09
   6.0000000e+01   2.0000000e+01  36.54
   6.0000000e+01   2.5000000e+01  37.85
   6.0000000e+01   3.0000000e+01  38.99
   6.0000000e+01   3.5000000e+01  39.93
   6.0000000e+01   4.0000000e+01  40.65
   6.0000000e+01   4.5000000e+01  41.15
   6.0000000e+01   5.0000000e+01  41.40
   6.0000000e+01   5.5000000e+01  41.40
   6.0000000e+01   6.0000000e+01  41.15
   6.0000000e+01   6.5000000e+01  40.65
   6.0000000e+01   7.0000000e+01  39.93
   6.0000000e+01   7.5000000e+01  38.99
   6.0000000e+01   8.0000000e+01  37.85
   6.0000000e+01   8.5000000e+01  36.54
   6.0000000e+01   9.0000000e+01  35.09
   6.0000000e+01   9.5000000e+01  33.53
   6.0000000e+01   1.0000000e+02  31.90
   7.0000000e+01   0.0000000e+00  24.91
   7.0000000e+01   5.0000000e+00  26.58
   7.0000000e+01   1.0000000e+01  28.21
   7.0000000e+01   1.5000000e+01  29.77
   7.0000000e+01   2.0000000e+01  31.22
   7.0000000e+01   2.5000000e+01  32.53
   7.0000000e+01   3.0000000e+01  33.67
   7.0000000e+01   3.5000000e+01  34.61
   7.0000000e+01   4.0000000e+01  35.34
   7.0000000e+01   4.5000000e+01  35.83
   7.0000000e+01   5.0000000e+01  36.08
   7.0000000e+01   5.5000000e+01  36.08
   7.0000000e+01   6.0000000e+01  35.83
   7.0000000e+01   6.5000000e+01  35.34
   7.0000000e+01   7.0000000e+01  34.61
   7.0000000e+01   7.5000000e+01  33.67
   7.0000000e+01   8.0000000e+01  32.53
   7.0000000e+01   8.5000000e+01  31.22
   7.0000000e+01   9.0000000e+01  29.77
   7.0000000e+01   9.5000000e+01  28.21
   7.0000000e+01   1.0000000e+02  26.58
   8.0000000e+01   0.0000000e+00  19.09
   8.0000000e+01   5.0000000e+00  20.76
   8.0000000e+01   1.0000000e+01  22.39
   8.0000000e+01   1.5000000e+01  23.95
   8.0000000e+01   2.0000000e+01  25.40
   8.0000000e+01   2.5000000e+01  26.71
   8.0000000e+01   3.0000000e+01  27.85
   8.0000000e+01   3.5000000e+01  28.79
   8.0000000e+01   4.0000000e+01  29.52
   8.0000000e+01   4.5000000e+01  30.01
   8.0000000e+01   5.0000000e+01  30.26
   8.0000000e+01   5.5000000e+01  30.26
   8.0000000e+01   6.0000000e+01  30.01
   8.0000000e+01   6.5000000e+01  29.52
   8.0000000e+01   7.0000000e+01  28.79
   8.0000000e+01   7.5000000e+01  27.85
   8.0000000e+01   8.0000000e+01  26.71
   8.0000000e+01   8.5000000e+01  25.40
   8.0000000e+01   9.0000000e+01  23.95
   8.0000000e+01   9.5000000e+01  22.39
   8.0000000e+01   1.0000000e+02  20.76
   9.0000000e+01   0.0000000e+00  13.77
   9.0000000e+01   5.0000000e+00  15.44
   9.0000000e+01   1.0000000e+01  17.07
   9.0000000e+01   1.5000000e+01  18.63
   9.0000000e+01   2.0000000e+01  20.08
   9.0000000e+01   2.5000000e+01  21.39
   9.0000000e+01   3.0000000e+01  22.53
   9.0000000e+01   3.5000000e+01  23.47
   9.0000000e+01   4.0000000e+01  24.20
   9.0000000e+01   4.5000000e+01  24.69
   9.0000000e+01   5.0000000e+01  24.94
   9.0000000e+01   5.5000000e+01  24.94
   9.0000000e+01   6.0000000e+01  24.69
   9.0000000e+01   6.5000000e+01  24.20
   9.0000000e+01   7.0000000e+01  23.47
   9.0000000e+01   7.5000000e+01  22.53
   9.0000000e+01   8.0000000e+01  21.39
   9.0000000e+01   8.5000000e+01  20.08
   9.0000000e+01   9.0000000e+01  18.63
   9.0000000e+01   9.5000000e+01  17.07
   9.0000000e+01   1.0000000e+02  15.44
