   3843       3
 4.952447414398193e+00  1.083359122276306e-02 -2.607470273971558e+00
 2.333210706710815e+00 -2.015638351440430e+00  4.828357696533203e-01
 1.896013021469116e+00 -1.674480199813843e+00 -1.607058495283127e-01
 1.963953018188477e+00 -1.574863791465759e+00  7.468426227569580e-01
 2.889343738555908e+00  2.874009609222412e+00  5.324821472167969e-01
 3.898811340332031e+00  2.834594964981079e+00  3.188424110412598e-01
 2.771414756774902e+00  2.777040958404541e+00 -5.763500928878784e-01
 2.523931503295898e+00  1.560269832611084e+00 -4.842367395758629e-02
 2.689764499664307e+00  2.213375568389893e+00  2.107138484716415e-01
 4.295123577117920e+00  2.791677951812744e+00 -5.198454856872559e-01
 4.958502769470215e+00  2.690207719802856e+00  3.989512845873833e-02
 4.937845706939697e+00  1.041145086288452e+00 -1.668560147285461e+00
 5.266813755035400e+00  1.854251027107239e+00 -1.776947975158691e+00
 5.220844268798828e+00  2.704280853271484e+00 -9.327433705329895e-01
 4.191074371337891e+00  1.418502449989319e+00 -2.066708564758301e+00
 3.182217359542847e+00  1.111763119697571e+00  2.755037307739258e+00
 3.258855581283569e+00  1.770546197891235e+00  2.344936370849609e+00
 3.293355226516724e+00  2.418677568435669e+00  1.838321805000305e+00
 2.309760570526123e+00  1.566865086555481e+00  9.311021566390991e-01
 4.554666996002197e+00  2.305246114730835e+00  7.811414003372192e-01
 2.386039495468140e+00  1.677813291549683e+00  2.391608953475952e+00
 1.841112971305847e+00  1.103949069976807e+00  1.756103873252869e+00
 3.098090171813965e+00  2.590037584304810e+00  2.842146158218384e+00
 2.069118976593018e+00  2.325701951980591e+00  2.720913171768188e+00
 2.800875902175903e+00  1.719622731208801e+00  3.130533695220947e+00
 1.533981680870056e+00  1.534412264823914e+00  2.610753774642944e+00
 1.723991751670837e+00  1.727550625801086e+00  3.397590160369873e+00
 1.668114304542542e+00  1.765134453773499e+00  1.933310508728027e+00
 5.689296245574951e+00 -9.505844116210938e-01  1.195260733366013e-01
 6.215218544006348e+00 -9.074004888534546e-01  9.554246068000793e-01
 5.566275119781494e+00 -1.177950724959373e-01  9.302271604537964e-01
 7.386098384857178e+00 -9.859971404075623e-01  1.024606347084045e+00
 6.503582954406738e+00 -1.915795683860779e+00  8.653748035430908e-01
 6.750226974487305e+00 -1.282905578613281e+00  5.504799634218216e-02
 2.642955490947004e+00  6.000000000000000e+00  4.978970562201891e+00
 2.049803000492021e+00  6.000000000000000e+00  3.956421574577974e+00
 3.226392435435465e+00  6.000000000000000e+00  3.957738588759087e+00
 2.049979448318481e+00  5.319280624389648e+00  4.637586116790771e+00
 8.423940658569336e+00  2.080605983734131e+00 -6.416234970092773e-01
 9.311377525329590e+00  2.859622955322266e+00 -9.283633828163147e-01
 8.666806221008301e+00  1.199643254280090e+00 -2.448810100555420e+00
 7.566673278808594e+00  1.372093081474304e+00 -2.025014162063599e+00
 5.123685836791992e+00  3.591272354125977e+00 -1.324024677276611e+00
 4.327638149261475e+00  3.706413269042969e+00 -2.400745630264282e+00
 4.263854503631592e+00  4.446177482604980e+00 -1.664500117301941e+00
 5.225333213806152e+00  3.825539827346802e+00 -2.420033216476440e+00
 8.385388374328613e+00  1.932933688163757e+00 -3.335252761840820e+00
 1.015130710601807e+01  2.135133028030396e+00 -1.352523565292358e+00
 2.139892816543579e+00 -1.077810883522034e+00 -1.823083043098450e+00
 1.997523546218872e+00 -6.373813152313232e-01 -2.341962575912476e+00
 1.389322638511658e+00 -5.949851870536804e-01 -1.781588435173035e+00
 1.867209434509277e+00 -4.195778667926788e-01 -1.500771045684814e+00
 1.596044659614563e+00 -1.533187031745911e+00 -2.049172163009644e+00
 1.586643695831299e+00 -1.139881491661072e+00 -2.668620347976685e+00
 4.752639293670654e+00  4.428698062896729e+00 -7.375541329383850e-01
 4.863832950592041e+00  3.583341836929321e+00 -3.467811346054077e-01
 5.113555431365967e+00  4.377018928527832e+00  3.324172645807266e-02
 1.213143433442299e+01  4.905121423502131e+00  6.000000000000000e+00
 1.090148416277396e+01  4.946067806009435e+00  6.000000000000000e+00
 1.147058823529412e+01  6.000000000000000e+00  6.000000000000000e+00
 1.133633327484131e+01  4.740502834320068e+00  5.278072834014893e+00
 2.089139938354492e+00 -3.624789714813232e-01 -9.231792688369751e-01
 2.327198266983032e+00 -3.155877590179443e-01 -3.923762738704681e-01
 2.286406755447388e+00  3.517654836177826e-01 -3.250595927238464e-01
 2.090453624725342e+00  9.569166302680969e-01 -7.697716951370239e-01
 2.382882356643677e+00  6.039651036262512e-01 -1.945695519447327e+00
 2.331898212432861e+00  1.119799837470055e-01 -1.429146409034729e+00
 2.310013532638550e+00  1.560171127319336e+00 -1.103326916694641e+00
 2.799120903015137e+00 -2.013515472412109e+00  9.738093614578247e-01
 5.883924007415771e+00 -1.358724236488342e+00  1.773977756500244e+00
 5.578479290008545e+00 -1.631173729896545e+00  1.029712080955505e+00
 1.096653176964333e+01 -6.000000000000000e+00 -2.872065741898126e+00
 1.171972523611960e+01 -6.000000000000000e+00 -1.825041480684867e+00
 1.201215456602182e+01 -6.000000000000000e+00 -2.930293977673732e+00
 1.174543285369873e+01 -5.141036033630371e+00 -2.801149606704712e+00
 4.949455738067627e+00 -2.417833089828491e+00  1.025617957115173e+00
 1.039379105344009e+01 -6.000000000000000e+00 -1.845675524434301e+00
 9.165294654673222e+00 -6.000000000000000e+00 -1.827659953662520e+00
 9.808203563278767e+00 -6.000000000000000e+00 -6.521873539962206e-01
 9.794767379760742e+00 -5.112313270568848e+00 -1.538522958755493e+00
 1.500000000000000e+01 -2.975975378470420e+00 -2.912495478117788e+00
 1.500000000000000e+01 -1.841705076119154e+00 -2.632639102846452e+00
 1.500000000000000e+01 -2.446934527905698e+00 -3.840683592897898e+00
 1.408509922027588e+01 -1.761396765708923e+00 -3.345073699951172e+00
-5.000000000000000e+00  1.831179890586775e+00  2.917894598347329e+00
-5.000000000000000e+00  2.401213033267657e+00  3.943696742864855e+00
-5.000000000000000e+00  1.212152331725573e+00  3.936171913566483e+00
-4.245368957519531e+00  1.542555212974548e+00  3.692772626876831e+00
 2.240232467651367e+00 -1.325834035873413e+00  1.386712312698364e+00
 2.711509943008423e+00 -1.208676248788834e-01  2.237078428268433e+00
 3.282887220382690e+00  4.777502641081810e-02  2.961093187332153e+00
 2.316942453384399e+00  2.485960274934769e-01  1.929261803627014e+00
 3.447412967681885e+00  1.218167066574097e+00 -2.973336458206177e+00
 3.854434967041016e+00  3.163337707519531e-01 -2.691824913024902e+00
 3.427643537521362e+00  1.755512118339539e+00 -2.388916969299316e+00
 6.992217540740967e+00  3.081729412078857e+00 -6.167256832122803e-01
 6.733440399169922e+00  4.117392063140869e+00 -8.424849510192871e-01
-3.939563616304914e+00 -1.825060473507948e+00 -6.000000000000000e+00
-5.000000000000000e+00 -1.200000000000000e+00 -6.000000000000000e+00
-5.000000000000000e+00 -2.400000000000000e+00 -6.000000000000000e+00
-5.000000000000000e+00 -1.835185775252666e+00 -4.915996371502687e+00
 6.121405601501465e+00  2.211193084716797e+00 -1.352354168891907e+00
 6.685093879699707e+00  2.539453029632568e+00  4.689498618245125e-02
 2.741870164871216e+00  5.483202934265137e-01  2.785714864730835e+00
 4.199819087982178e+00  3.576205492019653e+00 -1.192167878150940e+00
 8.519741058349609e+00 -3.482811212539673e+00  2.631103515625000e+00
 7.371552467346191e+00 -4.279520034790039e+00  2.168465614318848e+00
 7.976852893829346e+00 -3.441308975219727e+00  1.087041139602661e+00
 8.525577545166016e+00 -4.320823669433594e+00  2.050226688385010e+00
 1.168676872475056e+01 -1.869562854913613e+00  6.000000000000000e+00
 1.287718018404602e+01 -1.226996356580018e+00  6.000000000000000e+00
 1.288646121547707e+01 -2.440238346409934e+00  6.000000000000000e+00
 1.236455345153809e+01 -1.770466446876526e+00  5.178188323974609e+00
 5.597067244952230e+00  6.000000000000000e+00 -3.956806268474543e+00
 6.773473601910499e+00  6.000000000000000e+00 -3.957664922886180e+00
 6.190396815446087e+00  6.000000000000000e+00 -2.935290892830231e+00
 6.302132606506348e+00  5.184545993804932e+00 -3.555025100708008e+00
 1.311613559722900e+00 -1.214949131011963e+00 -1.307096600532532e+00
 5.820922851562500e+00 -2.292814254760742e+00  1.612627148628235e+00
 6.180216789245605e+00 -1.625773310661316e+00  2.659345626831055e+00
 6.476236343383789e+00 -2.514931917190552e+00  2.343623876571655e+00
 5.866361141204834e+00 -2.533842802047729e+00  3.116677999496460e+00
 5.398141860961914e+00 -1.678851366043091e+00  3.566651344299316e+00
 5.620751857757568e+00  1.001963019371033e+00 -2.429316520690918e+00
 6.539535522460938e+00  1.672292709350586e+00 -2.300298452377319e+00
 3.764126062393188e+00  1.456743717193604e+00  3.576883077621460e+00
 3.234144926071167e+00  6.676693558692932e-01  3.536209106445312e+00
 1.082414817810059e+01  2.601923227310181e+00  2.460158348083496e+00
 9.589007377624512e+00  1.864004850387573e+00  2.595186233520508e+00
 1.064576244354248e+01  1.355862855911255e+00  2.576892614364624e+00
 3.808997511563991e+00 -2.936921728774846e+00 -6.000000000000000e+00
 4.983039299482653e+00 -2.936227269720373e+00 -6.000000000000000e+00
 4.390516018558488e+00 -1.925212480145880e+00 -6.000000000000000e+00
 4.390735626220703e+00 -2.737718582153320e+00 -5.185113906860352e+00
 8.650938034057617e+00  2.452045917510986e+00  2.782725811004639e+00
 8.688491821289062e+00  1.313858747482300e+00  3.461964607238770e+00
 9.257456779479980e+00  2.213813066482544e+00  4.044426918029785e+00
 9.689367294311523e+00  2.884428501129150e+00  3.254849195480347e+00
 9.436823844909668e+00  2.845193386077881e+00  1.980514049530029e+00
 6.703619956970215e+00  1.852382346987724e-02 -2.548517704010010e+00
 5.651403903961182e+00  1.024689823389053e-01 -2.013951778411865e+00
 6.293974399566650e+00  9.500179290771484e-01 -3.173756599426270e+00
 5.787936210632324e+00  9.896399825811386e-02 -3.250975131988525e+00
 5.609197139739990e+00  2.793741464614868e+00  1.010338544845581e+00
 1.602421164512634e+00  3.340458571910858e-01  8.228319883346558e-01
 1.969334483146667e+00  4.023677706718445e-01  1.447993874549866e+00
 1.413963675498962e+00  7.445691525936127e-02  1.298157095909119e+00
 5.481156826019287e+00  1.632632851600647e+00  2.706703424453735e+00
-5.000000000000000e+00  2.607641723060386e+00  1.871450605548928e+00
-5.000000000000000e+00  2.797610131355066e+00  5.667150243375714e-01
-5.000000000000000e+00  3.827523056674453e+00  1.238832127794890e+00
-4.192438602447510e+00  3.480804443359375e+00  1.545339465141296e+00
 1.500000000000000e+01 -2.400000000000000e+00 -6.000000000000000e+00
 1.500000000000000e+01 -1.199999999999999e+00 -6.000000000000000e+00
 1.395175037703043e+01 -1.792476764830382e+00 -6.000000000000000e+00
 1.500000000000000e+01 -1.812897029179618e+00 -4.931309587493691e+00
 6.038929939270020e+00  1.501077055931091e+00  1.671943783760071e+00
 5.787296772003174e+00  2.416520595550537e+00  2.329287767410278e+00
 6.329001426696777e+00  2.181210994720459e+00  1.004405856132507e+00
 4.307403564453125e+00 -2.418584108352661e+00  3.726118087768555e+00
 4.495998859405518e+00 -9.965487718582153e-01  3.621186017990112e+00
 5.695286750793457e+00  5.157793521881104e+00 -2.608872413635254e+00
 6.877933979034424e+00  5.151036262512207e+00 -2.616517066955566e+00
 6.255111217498779e+00  5.153259277343750e+00 -1.652130246162415e+00
 3.926043033599854e+00  2.909286975860596e+00  2.210249900817871e+00
 2.201432228088379e+00 -1.507898569107056e+00 -1.259203910827637e+00
 3.280886888504028e+00  2.163324594497681e+00  3.607269763946533e+00
 5.165002346038818e+00 -2.896269798278809e+00 -1.775797367095947e+00
 5.514992713928223e+00 -2.907480239868164e+00 -9.182884693145752e-01
 4.977084636688232e+00 -2.712959766387939e+00  1.690535806119442e-02
 2.103787183761597e+00  7.672478556632996e-01  2.910124063491821e+00
 1.369970560073853e+00  1.164868950843811e+00  3.381059169769287e+00
 4.426895618438721e+00 -3.005258083343506e+00 -1.115015268325806e+00
 2.735550642013550e+00 -7.325318455696106e-02  3.505647897720337e+00
 3.735895156860352e+00  4.245685413479805e-02  3.776045083999634e+00
 6.053121566772461e+00  3.096609115600586e+00  3.246329545974731e+00
 5.530696868896484e+00  3.696674823760986e+00  2.239288568496704e+00
 6.253414154052734e+00  4.519688606262207e+00  2.364132881164551e+00
 6.920246601104736e+00  3.549313545227051e+00  2.128054618835449e+00
 3.392511606216431e+00  3.064093112945557e+00  1.382734417915344e+00
 3.960170030593872e+00  1.074027657508850e+00  2.646757125854492e+00
 9.026530265808105e+00  2.024258136749268e+00  2.428909391164780e-01
 9.011157035827637e+00  3.308106899261475e+00  3.015172481536865e-01
 7.994486331939697e+00  2.247441768646240e+00  2.533603608608246e-01
 7.545643806457520e+00  2.077859640121460e+00 -1.089446067810059e+00
 1.059894847869873e+01  1.952241420745850e+00 -2.461081504821777e+00
-1.796809077262878e+00  9.344427585601807e-01 -2.046833038330078e+00
-1.389687061309814e+00  1.870066523551941e+00 -1.328936934471130e+00
-1.680947303771973e+00  1.197235703468323e+00 -8.922780156135559e-01
-1.081961393356323e+00  1.227710962295532e+00 -1.311388015747070e+00
-1.586669206619263e+00  3.487131595611572e-01 -1.371060013771057e+00
-1.970433473587036e+00  6.644476056098938e-01 -8.937093019485474e-01
-2.280388355255127e+00  1.009913802146912e+00 -1.526145458221436e+00
 5.144571781158447e+00  2.681450366973877e+00  3.525243997573853e+00
 5.855077266693115e+00  1.886114597320557e+00  3.488176107406616e+00
 6.318365097045898e+00  2.320305347442627e+00  4.039649963378906e+00
 4.921074390411377e+00  2.402624607086182e+00  4.342097759246826e+00
-1.083469867706299e+00  1.657848000526428e+00 -1.899707198143005e+00
-8.541449904441833e-01  5.888881087303162e-01 -1.730122447013855e+00
-1.202623009681702e+00  8.107010722160339e-01 -2.421165943145752e+00
-2.007133483886719e+00  4.218045175075531e-01 -3.385254383087158e+00
-1.618302583694458e+00  2.102586627006531e-01 -2.325550317764282e+00
-2.348452329635620e+00  3.325007259845734e-01 -1.614934682846069e+00
-2.597029209136963e+00  3.773043453693390e-01 -2.671381711959839e+00
 2.252961397171021e+00 -1.200191956013441e-02  2.699761867523193e+00
 1.792538762092590e+00 -5.684891343116760e-01  1.594626784324646e+00
 1.111880683898926e+01  1.771618366241455e+00  7.658342719078064e-01
 6.707007929538027e+00 -3.583279944829414e-02  6.000000000000000e+00
 6.132273974010383e+00  9.323900740898551e-01  6.000000000000000e+00
 7.286871187543575e+00  9.226227118177176e-01  6.000000000000000e+00
 6.925557136535645e+00  6.894427537918091e-01  5.310669898986816e+00
 1.113551998138428e+01  2.335349559783936e+00 -6.811203062534332e-02
 9.848777770996094e+00  2.559964418411255e+00  3.082920312881470e-01
 8.403244972229004e+00 -1.172052145004272e+00  1.085690736770630e+00
 9.161026954650879e+00 -6.662241220474243e-01  1.488152027130127e+00
 8.050634384155273e+00 -7.187749147415161e-01  2.055388212203979e+00
 8.789908409118652e+00 -1.850725889205933e+00  2.327593564987183e+00
 4.418382538943472e+00  1.966463805169171e+00 -6.000000000000000e+00
 3.825365497764207e+00  9.877175628110236e-01 -6.000000000000000e+00
 4.987182774613793e+00  1.003242390620428e+00 -6.000000000000000e+00
 4.399745941162109e+00  8.719043135643005e-01 -5.214515686035156e+00
 5.066253185272217e+00  1.287887454032898e+00  3.711541891098022e+00
 4.250136852264404e+00  2.385097026824951e+00  3.747297286987305e+00
 8.739756584167480e+00 -2.337581157684326e+00  1.200864672660828e+00
 7.762156009674072e+00 -1.455251693725586e+00  8.684828132390976e-02
 8.755104064941406e+00 -1.624366044998169e+00  1.180542781949043e-01
 7.780942916870117e+00 -2.447608947753906e+00  6.555839776992798e-01
 1.923109650611877e+00 -9.423188567161560e-01 -1.037216424942017e+00
 5.598847995899818e+00 -6.000000000000000e+00  1.955921227908484e+00
 6.169680331832709e+00 -6.000000000000000e+00  1.015114636865533e+00
 5.001020459687618e+00 -6.000000000000000e+00  1.007607324138412e+00
 5.486740112304688e+00 -5.277271270751953e+00  8.928406834602356e-01
 2.121796369552612e+00 -9.638671875000000e-01  5.390495657920837e-01
 1.994425654411316e+00 -8.905178904533386e-01 -2.548030912876129e-01
 2.068691730499268e+00 -2.039701700210571e+00 -9.007521867752075e-01
 1.870252847671509e+00 -1.402560591697693e+00 -6.223776936531067e-01
 6.991656303405762e+00  3.044201135635376e+00  3.501834392547607e+00
 6.494383335113525e+00  3.431112766265869e+00  4.357101440429688e+00
 2.294554710388184e+00  2.708296775817871e+00  1.270177841186523e+00
 6.679800987243652e+00  1.748327732086182e+00  2.811142444610596e+00
 2.305835723876953e+00 -2.762818574905396e+00 -1.259971499443054e+00
 1.612068772315979e+00 -2.631793975830078e+00 -1.689745664596558e+00
 2.530931234359741e+00 -3.508331060409546e+00 -1.958800077438354e+00
 6.261860370635986e+00  3.446111202239990e+00  9.978435635566711e-01
 7.066406250000000e+00  3.046697139739990e+00  8.278593420982361e-01
 6.034312248229980e+00 -4.931610524654388e-01  2.311110496520996e+00
 6.739858627319336e+00 -3.464650362730026e-02  1.329444050788879e+00
 6.719779491424561e+00 -8.591399192810059e-01  1.715703010559082e+00
 4.917942523956299e+00  3.189384937286377e-02  2.579993009567261e+00
-5.000000000000000e+00  3.879218208809469e+00  1.495690766865028e-03
-5.000000000000000e+00  2.845740419661319e+00 -6.490194149085849e-01
-4.209355354309082e+00  3.605931997299194e+00  2.835270166397095e-01
 5.534196853637695e+00  3.278532028198242e+00  4.297511577606201e+00
 6.920347690582275e+00 -9.662873148918152e-01 -8.962545990943909e-01
 1.414987921714783e+00 -2.203260183334351e+00 -2.403165578842163e+00
 8.199242949485779e-01 -3.456913232803345e+00 -2.769737482070923e+00
 6.001318693161011e-01 -2.816186189651489e+00 -2.277748584747314e+00
 5.796595811843872e-01 -2.515460491180420e+00 -3.058092117309570e+00
 1.669544458389282e+00 -3.398279428482056e+00 -2.042679548263550e+00
 1.912924647331238e+00 -1.817744612693787e+00 -2.849397659301758e+00
 1.991458058357239e+00 -2.800176143646240e+00 -2.836279153823853e+00
 6.706627607345581e-01 -2.116337299346924e+00 -2.430664300918579e+00
 9.500437378883362e-01 -1.294062852859497e+00 -2.448868274688721e+00
 1.177718639373779e+00 -1.676733374595642e+00 -3.013131856918335e+00
 1.477717280387878e+00 -1.911310791969299e+00 -1.523763298988342e+00
 7.560632824897766e-01 -1.741791844367981e+00 -1.841872334480286e+00
 8.892375230789185e-01  2.324902772903442e+00  1.202690482139587e+00
 1.384173870086670e+00  2.693791151046753e+00  1.949237227439880e+00
 8.467174768447876e-01  1.745045185089111e+00  1.593139767646790e+00
 1.774214744567871e+00  2.021994829177856e+00  1.323662996292114e+00
 9.915219545364380e-01  2.163107156753540e+00  2.800495862960815e+00
 1.363012433052063e+00  1.192891240119934e+00  1.240936756134033e+00
-3.972128661941815e+00 -6.000000000000000e+00  2.978628693422127e+00
-5.000000000000000e+00 -6.000000000000000e+00  2.400000000000000e+00
-5.000000000000000e+00 -6.000000000000000e+00  3.600000000000000e+00
-5.000000000000000e+00 -4.891724926042854e+00  3.088713287094377e+00
 4.241302907466888e-01  1.432259440422058e+00  2.406792163848877e+00
-2.985466122627258e-01  1.179194927215576e+00 -1.823088049888611e+00
 3.176922798156738e-01  1.140516161918640e+00 -2.549694776535034e+00
-2.292776405811310e-01  4.399161338806152e-01 -2.453104019165039e+00
-7.189147472381592e-01  1.391906619071960e+00 -2.483584403991699e+00
 2.882185280323029e-01  1.671991825103760e+00 -2.246220111846924e+00
 2.807660102844238e-01  1.836253285408020e+00 -3.137761116027832e+00
-2.634322941303253e-01  1.197379946708679e+00 -3.127289056777954e+00
-2.886622419814992e+00  6.000000000000000e+00  2.440289948717576e+00
-3.960760340831099e+00  6.000000000000000e+00  2.997133594794589e+00
-3.708126068115234e+00  5.215673923492432e+00  2.337969303131104e+00
-3.773202180862427e+00  5.285763263702393e+00  3.334647178649902e+00
-3.460770606994629e+00  4.401250362396240e+00  2.910976409912109e+00
-4.173032283782959e+00  4.355455398559570e+00  2.334370851516724e+00
-3.254365921020508e+00  4.007708072662354e+00  1.561749219894409e+00
 6.489627361297607e-01  7.342514395713806e-01 -1.931444168090820e+00
 3.662550449371338e-01  4.826511442661285e-01 -2.950713396072388e+00
 1.062803864479065e+00  9.750181436538696e-01 -2.358263492584229e+00
 1.029574751853943e+00  3.319494426250458e-01 -2.658289909362793e+00
 1.043308973312378e+00  7.086974382400513e-01 -3.366259098052979e+00
 9.069467544555664e+00 -4.256066322326660e+00  3.229396343231201e+00
 7.763640403747559e+00 -3.262930154800415e+00  3.237445831298828e+00
 7.872851371765137e+00 -4.287469387054443e+00  3.260468482971191e+00
 7.652457237243652e+00 -3.484694004058838e+00  4.295736312866211e+00
 6.956944942474365e+00 -3.047983169555664e+00  3.831073045730591e+00
 6.981062889099121e+00 -4.272468566894531e+00  3.270776033401489e+00
 7.317101478576660e+00 -2.970788717269897e+00  1.816113471984863e+00
 6.797696113586426e+00 -3.366178035736084e+00  2.830574035644531e+00
 7.498048305511475e+00 -2.047216176986694e+00  2.577825784683228e+00
-2.547195911407471e+00  5.166598796844482e+00  2.127885341644287e+00
 7.427925586700439e+00 -2.339465141296387e+00  3.556396961212158e+00
 2.218385696411133e+00  2.849105596542358e+00  2.113741397857666e+00
 1.412681579589844e+00  3.513532876968384e+00  2.791880130767822e+00
 2.805124282836914e+00  3.480657815933228e+00  1.367432355880737e+00
 2.033447027206421e+00  3.430844545364380e+00  1.411431789398193e+00
 2.958585023880005e+00  3.037603378295898e+00  2.075720071792603e+00
 1.725582480430603e+00  3.463423728942871e+00  2.040349006652832e+00
 5.094156742095947e+00  7.172323018312454e-02  3.614479541778564e+00
 4.332255840301514e+00  6.779238581657410e-01  3.534997701644897e+00
 1.003784751892090e+01 -7.951259016990662e-01 -1.918303012847900e+00
-3.952409337433744e+00  6.000000000000000e+00  1.812365212780151e+00
-3.582371473312378e+00  5.280167102813721e+00  1.232386708259583e+00
-2.676770210266113e+00  3.940736532211304e+00 -3.355334520339966e+00
-2.749148368835449e+00  3.632838964462280e+00 -4.175863742828369e+00
-2.905091285705566e+00  3.134309291839600e+00 -2.893789052963257e+00
-3.713738918304443e+00  3.575464487075806e+00 -3.353784322738647e+00
 8.821999549865723e+00 -5.115495920181274e-01 -2.470902204513550e+00
 9.817053794860840e+00  1.028786525130272e-01 -2.643448114395142e+00
 8.000856399536133e+00 -1.265257954597473e+00 -2.067158699035645e+00
 8.734794616699219e+00 -2.320412874221802e+00 -1.090061783790588e+00
 9.838946342468262e+00 -1.943793892860413e+00 -2.072885274887085e+00
-1.724406838417053e+00 -1.449815988540649e+00 -1.806091666221619e+00
-1.567680120468140e+00 -1.435820102691650e+00 -2.932233810424805e+00
-8.410518765449524e-01 -1.592066287994385e+00 -2.516792058944702e+00
-1.451236724853516e+00 -2.135652542114258e+00 -2.402671337127686e+00
-9.508709311485291e-01 -1.516671180725098e+00 -1.851698160171509e+00
-1.128273487091064e+00 -2.339537382125854e+00 -1.423513412475586e+00
-1.062297105789185e+00 -1.451817512512207e+00 -1.183954238891602e+00
-1.868892669677734e+00 -2.009020566940308e+00 -1.295410752296448e+00
-1.892821907997131e+00 -1.032662034034729e+00 -9.549580812454224e-01
-1.605959296226501e+00 -7.978608608245850e-01 -2.334248304367065e+00
-2.453762292861938e+00 -4.567430913448334e-01 -1.767397761344910e+00
-1.344697475433350e+00 -8.554857373237610e-01 -1.422595381736755e+00
-2.510852336883545e+00 -1.169394373893738e+00 -1.363085269927979e+00
 2.312397003173828e+00  1.229043602943420e+00 -2.162381172180176e+00
 1.567773342132568e+00  1.291703462600708e+00 -1.747093558311462e+00
 2.009893417358398e+00  5.901930332183838e-01 -1.183662176132202e+00
 2.568676948547363e+00  2.111265659332275e+00 -1.529819965362549e+00
 4.910956859588623e+00  2.990111708641052e-01 -3.365631818771362e+00
 5.117839336395264e+00  1.211470603942871e+00 -3.430180788040161e+00
 4.348306655883789e+00  5.173217058181763e-01 -3.893696069717407e+00
-3.864873170852661e+00  4.487607955932617e+00 -3.472913265228271e+00
-3.030538558959961e+00  3.954030752182007e+00 -2.508392333984375e+00
-3.088308811187744e+00  4.808460712432861e+00 -3.620184659957886e+00
 3.517501115798950e+00  2.324794054031372e+00 -1.780990362167358e+00
 4.165781974792480e+00  2.867158889770508e+00 -1.988219380378723e+00
 4.694537639617920e+00  2.435570240020752e+00 -2.413793087005615e+00
 3.167821884155273e+00  2.819626808166504e+00 -2.666680574417114e+00
 2.654293537139893e+00  2.120389699935913e+00 -2.322107315063477e+00
 2.766810894012451e+00  2.927985429763794e+00 -1.857023954391479e+00
 3.301738500595093e+00  3.566977500915527e+00 -2.192985296249390e+00
 3.627578258514404e+00  2.861906528472900e+00 -1.079683423042297e+00
 1.056298065185547e+01 -2.108076810836792e+00 -3.569144725799561e+00
 1.047290039062500e+01 -3.058462619781494e+00 -2.331355094909668e+00
 9.456383705139160e+00 -2.794120788574219e+00 -3.079780817031860e+00
 8.779987335205078e+00 -1.816459894180298e+00 -2.249234676361084e+00
 9.639943122863770e+00 -2.702758550643921e+00 -1.136980891227722e+00
-2.095624208450317e+00  2.912147283554077e+00 -3.127259969711304e+00
-1.039943337440491e+00  3.531571149826050e+00 -2.771345853805542e+00
-1.379003882408142e+00  2.725986003875732e+00 -2.440255165100098e+00
-1.382574677467346e+00  2.776752710342407e+00 -3.500056743621826e+00
 9.244878768920898e+00 -3.306340456008911e+00 -2.261335134506226e+00
 1.470649123191833e+00 -2.583601713180542e+00 -9.571670293807983e-01
 1.159581661224365e+00 -1.694506168365479e+00 -7.690699100494385e-01
 1.429607152938843e+00 -2.486685991287231e+00 -3.439462780952454e-01
 2.037935733795166e+00 -2.646894931793213e+00 -3.969990313053131e-01
 5.061901092529297e+00 -2.687682628631592e+00  2.305698871612549e+00
 3.659657955169678e+00 -2.695608139038086e+00  2.966830968856812e+00
 3.131816148757935e+00 -2.050424098968506e+00  2.892055511474609e+00
 2.321146726608276e+00  9.970570802688599e-01 -2.821449935436249e-01
-2.195206403732300e+00  3.702399969100952e+00 -2.630418300628662e+00
-1.700660943984985e+00  3.763530015945435e+00 -3.564900159835815e+00
-1.701165437698364e+00  4.579648017883301e+00 -3.217030286788940e+00
-1.769097924232483e+00  1.612169384956360e+00 -2.584652423858643e+00
-1.801017045974731e+00  2.133921623229980e+00 -1.893912315368652e+00
-7.233908176422119e-01  2.436164617538452e+00 -1.224075675010681e+00
-3.700624704360962e-01  1.664574742317200e+00 -1.287161588668823e+00
-3.298196494579315e-01  2.053382873535156e+00 -2.033436536788940e+00
-2.784863471984863e+00  5.175318241119385e+00 -2.711881399154663e+00
-2.333200693130493e+00  4.534399032592773e+00 -2.493422746658325e+00
 1.941690325737000e+00  9.702512621879578e-01  1.289839744567871e-01
 1.774376630783081e+00  1.483023524284363e+00  5.779559016227722e-01
 1.892920255661011e+00  8.983206748962402e-01  7.978191375732422e-01
 2.216749429702759e+00  3.720544576644897e-01  4.318718612194061e-01
 1.917972207069397e+00 -1.517183184623718e-01  9.636914134025574e-01
-5.262467861175537e-01  2.335569620132446e+00  1.616291403770447e+00
-9.793584346771240e-01  2.078486680984497e+00  2.539225339889526e+00
 1.520690768957138e-01  2.281009674072266e+00  2.517034769058228e+00
-8.085219860076904e-01  2.688928127288818e+00  2.145592212677002e+00
-1.895259618759155e+00  4.325726032257080e+00 -4.196032524108887e+00
 7.879818975925446e-02  2.700148820877075e+00  1.858426213264465e+00
-3.476991504430771e-02  3.414227485656738e+00  2.766346454620361e+00
 4.654263496398926e+00 -4.200200080871582e+00  4.359600067138672e+00
 4.569579601287842e+00 -5.234504699707031e+00  4.470140933990479e+00
 5.744655132293701e+00 -5.234637737274170e+00  4.470902442932129e+00
 5.597438335418701e+00 -4.638127326965332e+00  5.320021629333496e+00
-8.793955445289612e-01  2.788772344589233e+00  3.215184211730957e+00
-1.735264420509338e+00  2.353582620620728e+00  2.612645387649536e+00
-1.117015123367310e+00  3.130531072616577e+00  1.227708339691162e+00
-5.701071023941040e-01  3.290384769439697e+00  1.789906978607178e+00
 2.818879842758179e+00  6.044582724571228e-01 -2.771382570266724e+00
 1.920436620712280e+00  7.111833095550537e-01 -2.962086915969849e+00
 1.782618165016174e+00  1.379158645868301e-01 -1.778166890144348e+00
 1.902728319168091e+00  6.924748420715332e-02 -2.547459363937378e+00
 7.202885627746582e+00 -7.399362921714783e-01 -1.906653881072998e+00
 6.729821681976318e+00 -1.917086720466614e+00 -1.334787487983704e+00
 7.929057598114014e+00 -2.289393901824951e+00 -1.489133238792419e+00
 1.010371398925781e+01 -1.790158629417419e+00  1.292795896530151e+00
 9.782684326171875e+00 -7.128219604492188e-01  2.307491779327393e+00
 8.545637130737305e+00 -6.871794462203979e-01  2.866744279861450e+00
 4.892141819000244e+00  3.521208047866821e+00  8.023483157157898e-01
 3.754442930221558e+00  3.754466533660889e+00  1.078073829412460e-01
 3.994126081466675e+00  3.671649217605591e+00  1.470343947410583e+00
 3.273315429687500e+00  3.579654693603516e+00  6.789556145668030e-01
 2.916722297668457e+00  3.605931997299194e+00  1.878429390490055e-02
 1.241199207305908e+01 -8.139532208442688e-01 -4.594582080841064e+00
 1.264692497253418e+01 -2.457586526870728e-01 -5.194789409637451e+00
 1.377088737487793e+01 -1.186265587806702e+00 -5.239613056182861e+00
 1.252806854248047e+01 -1.500183105468750e+00 -5.181034564971924e+00
-1.128671094775200e-01 -6.759993731975555e-02 -2.030478954315186e+00
-6.614403128623962e-01  9.013325721025467e-02 -2.005213260650635e+00
-5.163450241088867e-01 -7.221129722893238e-03 -1.450465917587280e+00
-1.648337095975876e-01  5.568652749061584e-01 -1.330488443374634e+00
 6.587342023849487e-01  5.398588180541992e-01 -1.284004330635071e+00
 3.527668491005898e-02  7.984538674354553e-01 -1.813931107521057e+00
 2.985273897647858e-01 -7.801879942417145e-02 -1.536553025245667e+00
 1.137005519866943e+01 -1.065695136785507e-01 -2.165663719177246e+00
-1.741594076156616e+00  2.320464611053467e+00  9.027967453002930e-01
-1.463659644126892e+00  2.928566932678223e+00  3.052245378494263e-01
-1.112321496009827e+00  2.314658403396606e+00  1.168411970138550e+00
-2.530711412429810e+00  2.688528537750244e+00  3.659801483154297e-01
-1.683244705200195e+00  2.268200874328613e+00 -4.131128638982773e-02
-1.991679668426514e+00  3.386880636215210e+00  4.430114328861237e-01
-6.727190017700195e-01  2.610655307769775e+00 -3.532347679138184e-01
-6.482194662094116e-01  3.258253097534180e+00  1.140485852956772e-01
-8.890367746353149e-01  2.475273370742798e+00  3.055532872676849e-01
-2.595802783966064e+00  2.661022424697876e+00 -4.226870834827423e-01
-1.872396349906921e+00  3.300687313079834e+00 -4.931598007678986e-01
 4.411764705882353e+00 -6.000000000000000e+00  6.000000000000000e+00
 3.235294117647060e+00 -6.000000000000000e+00  6.000000000000000e+00
 3.828568622335490e+00 -4.978792359945554e+00  6.000000000000000e+00
 3.827755123331547e+00 -6.000000000000000e+00  4.978749173440987e+00
-1.144901990890503e+00  3.343910217285156e+00 -3.462918102741241e-01
-1.394174456596375e+00  4.038663864135742e+00  3.486373126506805e-01
 1.194231605529785e+01  1.847499012947083e+00 -3.381840467453003e+00
 1.329727363586426e+01  2.479200601577759e+00 -3.175502777099609e+00
 1.332108306884766e+01  1.650645852088928e+00 -3.933969259262085e+00
 1.259474468231201e+01  2.522739887237549e+00 -4.380039215087891e+00
 1.850505113601685e+00 -2.324924230575562e+00  2.236567497253418e+00
 7.693232893943787e-01 -2.548020601272583e+00  1.922418713569641e+00
 7.764824628829956e-01 -2.267543554306030e+00  2.738622665405273e+00
 7.683446407318115e-01 -1.805620074272156e+00  2.041330337524414e+00
 1.585787653923035e+00 -2.046592950820923e+00  3.324440717697144e+00
 1.108486294746399e+00 -1.508501768112183e+00  2.679100990295410e+00
 1.963131189346313e+00 -2.813347578048706e+00  3.499968051910400e+00
 1.377424359321594e+00 -3.046498775482178e+00  2.649852514266968e+00
 1.570986270904541e+00 -2.619901895523071e+00  1.656014561653137e+00
 1.725303053855896e+00 -3.483844280242920e+00  1.785269141197205e+00
 2.640821218490601e+00 -2.651958942413330e+00  2.768225431442261e+00
 3.998343646526337e-01 -1.873763680458069e+00  3.319178104400635e+00
 3.924589753150940e-01 -1.288436174392700e+00  2.301174640655518e+00
-4.773280024528503e-02 -1.097155213356018e+00  3.264833211898804e+00
-1.438897699117661e-01 -1.710382342338562e+00  2.582787275314331e+00
 1.670104503631592e+00 -1.330905675888062e+00  2.131314277648926e+00
 3.649729192256927e-01  1.165791988372803e+00 -3.334585189819336e+00
 1.037673473358154e+00 -5.345140695571899e-01  2.541625261306763e+00
-3.109684117495091e-01  3.960388861688947e+00  6.000000000000000e+00
 2.676184893346116e-01  2.949009457051937e+00  6.000000000000000e+00
-9.203257515693091e-01  2.952458982215888e+00  6.000000000000000e+00
-6.283503174781799e-01  3.710274934768677e+00  5.236248493194580e+00
 7.404040813446045e+00  7.102273702621460e-01  8.216080069541931e-01
 7.091269969940186e+00 -2.079360485076904e+00  1.656631588935852e+00
-1.802602648735046e+00 -2.482900381088257e+00 -2.619508802890778e-01
-8.749119043350220e-01 -2.806332588195801e+00 -9.093679785728455e-01
-7.795262336730957e-01 -2.444640159606934e+00 -3.394550681114197e-01
-1.603835105895996e+00 -1.660784006118774e+00 -2.455070316791534e-01
-1.310484766960144e+00 -1.867101430892944e+00 -8.290593028068542e-01
-1.326932311058044e+00 -9.137163162231445e-01 -5.904294848442078e-01
-8.573831915855408e-01 -1.150161266326904e+00 -5.356014966964722e-01
-4.145196676254272e-01 -1.715871214866638e+00 -1.167294144630432e+00
-3.492791354656219e-01 -2.463008403778076e+00 -1.238292932510376e+00
-8.187056779861450e-01 -1.768333435058594e+00 -4.131305515766144e-01
 7.491857528686523e+00  1.714658617973328e+00  1.876429080963135e+00
 8.127443313598633e+00  2.433071851730347e+00  1.711140990257263e+00
 8.977384567260742e+00  2.547557830810547e+00  1.069200038909912e+00
 1.960120558738708e+00  1.388530611991882e+00 -3.989765942096710e-01
 1.527041196823120e+00  1.705054044723511e+00 -4.379878938198090e-01
 1.430144548416138e+00  1.245562076568604e+00 -9.880063533782959e-01
 1.644353270530701e+00  1.946827173233032e+00 -1.265441298484802e+00
 2.129698991775513e+00  2.204059123992920e+00 -6.328268647193909e-01
 1.779660582542419e+00  1.990771055221558e+00 -2.099737882614136e+00
 2.230803489685059e+00 -2.850066423416138e+00  1.119326949119568e+00
 2.595921516418457e+00 -2.409294366836548e+00  1.495928287506104e+00
 1.728965997695923e+00 -2.192393541336060e+00  1.011155366897583e+00
 2.853559255599976e+00 -2.861968517303467e+00  5.722811818122864e-01
 1.784942150115967e+00 -2.732393980026245e+00  3.827363252639771e-01
 3.154279947280884e+00 -2.901118993759155e+00  1.272036552429199e+00
 6.239973068237305e+00 -3.980754375457764e+00 -1.388651967048645e+00
 6.342631816864014e+00 -2.949295997619629e+00 -1.559980273246765e+00
 6.730178356170654e+00 -3.008187770843506e+00 -8.014581799507141e-01
 5.660843849182129e+00 -3.594065427780151e+00 -1.973662137985229e+00
 6.636830806732178e+00 -3.528770446777344e+00 -2.427024126052856e+00
 7.090139865875244e+00 -4.246194839477539e+00 -1.661584377288818e+00
 5.945590019226074e+00 -2.808259487152100e+00 -2.475816965103149e+00
 7.507111549377441e+00 -2.949231624603271e+00 -1.935864686965942e+00
 7.117683887481689e+00 -1.976215004920959e+00 -2.195553541183472e+00
 2.869271039962769e+00 -3.573210000991821e+00 -1.174708724021912e+00
 2.860183715820312e+00 -3.605440139770508e+00 -7.918965816497803e-02
 2.079893112182617e+00 -3.362152099609375e+00  6.115011125802994e-02
 3.206830739974976e+00 -2.957053184509277e+00 -7.965876138769090e-04
 1.087785530090332e+01 -2.432830333709717e+00  6.214217543601990e-01
 1.051134967803955e+01 -1.397859454154968e+00  2.741854488849640e-01
 1.127978801727295e+01 -2.051808595657349e+00  1.580467700958252e+00
 1.156329536437988e+01 -1.932302713394165e+00 -9.706483036279678e-02
 1.200331497192383e+01 -1.970342993736267e+00  8.852111101150513e-01
 1.051680183410645e+01 -2.692968130111694e+00 -8.443335294723511e-01
 9.594061851501465e+00 -2.126891374588013e+00  1.242347881197929e-01
 1.126040744781494e+01 -8.342168927192688e-01  1.725727319717407e+00
 1.120053672790527e+01  1.814196556806564e-01  9.946116805076599e-01
 9.071050643920898e+00 -3.816673755645752e+00 -1.483966827392578e+00
 1.016921615600586e+01 -3.579194545745850e+00 -1.383752346038818e+00
 9.745909690856934e+00 -4.197259426116943e+00 -2.424231052398682e+00
 9.654443740844727e+00 -3.371739149093628e+00 -2.027821242809296e-01
-1.265987038612366e+00  4.356094896793365e-01 -3.268624067306519e+00
-5.583403706550598e-01  3.990524634718895e-02 -3.027894020080566e+00
 8.804366111755371e+00 -3.257227659225464e+00 -7.972008585929871e-01
 9.746624946594238e+00 -4.646988391876221e+00 -6.047869920730591e-01
 1.056408882141113e+01 -4.052560806274414e+00 -5.749680995941162e-01
 5.648386955261230e+00 -2.067067623138428e+00  2.382909655570984e-01
 7.880726337432861e+00  3.728194236755371e+00  2.941474199295044e+00
 7.537402153015137e+00  2.378952026367188e+00  3.188310146331787e+00
 8.581539154052734e+00  3.017408132553101e+00  3.497795820236206e+00
 8.068290710449219e+00  3.304214954376221e+00  4.295111656188965e+00
 8.407619476318359e+00  2.113640308380127e+00  4.363595485687256e+00
 1.142038440704346e+01  2.337997257709503e-01 -3.237620353698730e+00
 1.123827934265137e+01  1.200867176055908e+00 -2.979486703872681e+00
 1.500000000000000e+01 -4.932066938054660e+00  6.181011331612524e-01
 1.500000000000000e+01 -3.827523056674453e+00  1.238832127794890e+00
 1.500000000000000e+01 -3.879218208809469e+00  1.495690766865028e-03
 1.420689105987549e+01 -4.416854381561279e+00  1.543634980916977e-01
 1.500000000000000e+01  5.912082371029463e-01 -2.796417873461422e+00
 1.416553211212158e+01 -9.030395001173019e-02 -2.463156223297119e+00
 1.500000000000000e+01  1.380181390088917e-02 -1.798190921599030e+00
 1.421747684478760e+01  8.614450097084045e-01 -2.408414363861084e+00
-2.803608417510986e+00  3.015804767608643e+00  3.501336336135864e+00
-2.310666084289551e+00  3.604457616806030e+00  2.517409086227417e+00
-3.473486900329590e+00  3.408004045486450e+00  3.374964714050293e+00
-2.732518672943115e+00  4.430832386016846e+00  3.692851066589355e+00
 6.172201637320789e+00 -6.000000000000000e+00 -4.978337972210570e+00
 6.607058525085449e+00 -5.231523036956787e+00 -4.465059280395508e+00
 6.426349639892578e+00 -4.594140529632568e+00 -5.296948432922363e+00
 5.430268764495850e+00 -5.232851982116699e+00 -4.467994213104248e+00
-1.815203905105591e+00  4.373003005981445e+00  3.513689756393433e+00
-2.593890905380249e+00  4.356127738952637e+00  2.656910419464111e+00
 6.442010879516602e+00 -1.974746942520142e+00  3.533197164535522e+00
 7.821809291839600e+00 -1.423799157142639e+00  3.338652849197388e+00
 7.283219814300537e+00  2.381786823272705e+00  4.163073062896729e+00
 1.585384249687195e+00 -1.706627011299133e+00  1.512922167778015e+00
 1.746638894081116e+00 -9.416247010231018e-01  1.095014572143555e+00
 1.495686054229736e+00 -9.713336229324341e-01  4.918966293334961e-01
 1.434118628501892e+00 -1.277362346649170e+00 -6.499269604682922e-02
 1.577132701873779e+00 -4.778096675872803e-01  4.903869032859802e-01
 4.775727748870850e+00  2.863509893417358e+00 -3.390645980834961e+00
 3.856267213821411e+00  2.916881322860718e+00 -3.359828233718872e+00
 6.733948707580566e+00  7.687829136848450e-01  1.764153242111206e+00
 6.788723468780518e+00  2.658812046051025e+00  2.375257253646851e+00
 7.205826759338379e+00 -1.644388198852539e+00 -5.131800651550293e+00
 6.818627357482910e+00 -8.206533789634705e-01 -4.366230487823486e+00
 7.756784915924072e+00 -8.046622276306152e-01 -4.374192714691162e+00
 6.902822494506836e+00 -7.659505605697632e-01 -5.314875602722168e+00
 7.156843185424805e+00  1.730496764183044e+00  9.637218117713928e-01
 1.108145809173584e+01 -1.085650205612183e+00 -2.613162517547607e+00
 2.850604295730591e+00 -5.895962119102478e-01 -2.756579875946045e+00
-2.082620859146118e+00  3.320844650268555e+00  3.840793848037720e+00
-2.624812602996826e+00 -1.869020819664001e+00 -1.916649222373962e+00
-1.825024604797363e+00 -2.479844093322754e+00 -3.518580436706543e+00
-2.270286798477173e+00 -2.630319595336914e+00 -2.331413269042969e+00
-2.623421669006348e+00 -2.028502702713013e+00 -3.190942764282227e+00
-4.253671467304230e-01 -1.963708519935608e+00 -1.905861139297485e+00
 1.147058823529412e+01 -6.000000000000000e+00  6.000000000000000e+00
 1.212745330766246e+01 -6.000000000000000e+00  4.917870197629624e+00
 1.089572314448552e+01 -6.000000000000000e+00  4.962723401207548e+00
 1.150745773315430e+01 -5.283832550048828e+00  4.947792530059814e+00
 5.048035621643066e+00 -1.937072157859802e+00 -2.754515171051025e+00
 6.225998878479004e+00 -1.932740211486816e+00 -2.957235336303711e+00
 5.327893257141113e+00 -8.601970076560974e-01 -2.747060060501099e+00
 3.100361108779907e+00 -3.507884740829468e+00  3.188565731048584e+00
 4.015617370605469e+00 -3.455480575561523e+00  3.098996400833130e+00
 3.142620801925659e+00 -3.377756357192993e+00  4.281342029571533e+00
 4.097127437591553e+00 -3.339296340942383e+00  4.241452217102051e+00
 5.463927745819092e+00 -3.375399589538574e+00  2.759048223495483e+00
 5.089627265930176e+00 -3.092033147811890e+00  3.540839433670044e+00
 3.418724298477173e+00 -4.387869834899902e+00  3.555812835693359e+00
 4.085656642913818e+00 -4.478659629821777e+00  2.371499538421631e+00
 4.352396965026855e+00 -4.273780822753906e+00  3.270298004150391e+00
 8.854173660278320e+00  3.611381769180298e+00 -2.882975578308105e+00
 7.327168464660645e+00  3.433826208114624e+00 -2.502157449722290e+00
 8.571853637695312e+00  4.246689319610596e+00 -2.230081081390381e+00
 7.644569873809814e+00  3.314337968826294e+00 -1.564929246902466e+00
 7.791273117065430e+00  4.183521270751953e+00 -1.653394699096680e+00
-2.659931898117065e+00  2.778854131698608e+00  2.137257099151611e+00
-3.379691839218140e+00  3.141450643539429e+00  2.504190683364868e+00
 9.049960136413574e+00  3.859674215316772e+00 -1.562189221382141e+00
 8.783940315246582e+00  4.298965930938721e+00 -6.484817266464233e-01
 3.645698785781860e+00 -3.679496288299561e+00 -2.907468795776367e+00
 3.738204002380371e+00 -4.551573753356934e+00 -2.500908136367798e+00
 4.542839527130127e+00 -3.561157464981079e+00 -2.058842658996582e+00
 3.356522321701050e+00 -3.617738008499146e+00 -1.992128968238831e+00
 4.057937622070312e+00 -3.035643577575684e+00 -3.463672876358032e+00
 2.871535539627075e+00 -2.982941150665283e+00 -3.590664148330688e+00
 4.818991184234619e+00  3.530233383178711e+00  3.119968175888062e+00
 5.942922115325928e+00  9.956206679344177e-01  3.414498090744019e+00
 5.844122409820557e+00  7.709627747535706e-01  2.296862840652466e+00
-1.829691008902420e+00 -6.279820384035112e-01 -6.000000000000000e+00
-8.932195823692455e-01 -1.059902804504209e+00 -6.000000000000000e+00
-8.312250350804851e-01 -5.331396433994299e-02 -6.000000000000000e+00
-1.573110818862915e+00 -5.737870931625366e-01 -5.031613826751709e+00
-2.109527826309204e+00  4.304134845733643e+00  1.583259582519531e+00
-1.253326416015625e+00 -2.697490930557251e+00  7.561259716749191e-02
-1.296531796455383e+00 -3.270110845565796e+00  1.168032646179199e+00
-1.940973639488220e+00 -3.362139463424683e+00  7.837258577346802e-01
-1.301263213157654e+00 -3.409666776657104e+00  2.775968611240387e-01
-1.742237687110901e+00 -2.449893712997437e+00  1.049083113670349e+00
-1.195205807685852e+00 -3.310357570648193e+00 -5.107150673866272e-01
-1.392596483230591e+00 -4.103843688964844e+00 -4.347876310348511e-01
-2.031722784042358e+00 -3.352015256881714e+00 -2.592399418354034e-01
-5.666248798370361e-01 -3.859575510025024e+00 -3.357427194714546e-02
-6.653486490249634e-01 -3.142440795898438e+00 -1.900341957807541e-01
-5.685645341873169e-01 -3.346599817276001e+00  7.470246553421021e-01
-1.887628912925720e+00 -3.014138221740723e+00 -1.389317035675049e+00
 4.169490560889244e-02 -3.033538341522217e+00 -2.968856692314148e-01
 3.714126348495483e-01 -2.646894931793213e+00 -6.780869960784912e-01
-8.207836747169495e-02 -2.063740968704224e+00 -4.692431986331940e-01
-1.676783561706543e+00  4.374517440795898e+00  2.447182893753052e+00
-1.175282359123230e+00 -3.247236251831055e+00 -1.719812393188477e+00
 9.094171971082687e-02 -3.399732112884521e+00 -7.842493057250977e-01
-5.262973308563232e-01 -3.260818719863892e+00 -1.436858177185059e+00
-5.407572984695435e-01 -4.149341106414795e+00 -7.244622707366943e-01
 1.136726379394531e+01 -1.488473176956177e+00 -1.570017218589783e+00
 1.224020481109619e+01 -9.314637780189514e-01 -2.166561365127563e+00
 1.292458248138428e+01  5.165680870413780e-02 -1.310801267623901e+00
 1.209930706024170e+01  1.025058984756470e+00 -1.874236583709717e+00
 1.220358753204346e+01  3.727422952651978e-01 -2.798996448516846e+00
 1.232061767578125e+01 -8.220796585083008e-01 -3.608827590942383e+00
 1.833338022232056e+00 -4.948149323463440e-01  2.279031991958618e+00
 1.819328188896179e+00 -5.690581798553467e-01  2.876631975173950e+00
 1.270827054977417e+00 -1.041242361068726e+00  1.397697687149048e+00
 1.582205533981323e+00  9.450563788414001e-02  1.911954402923584e+00
 7.889820726873976e+00 -6.000000000000000e+00  7.102184214403080e-02
 8.164402008056641e+00 -5.330125808715820e+00 -6.802402734756470e-01
 7.892561435699463e+00 -4.916789054870605e+00  6.990498304367065e-02
 8.904755592346191e+00 -4.979709148406982e+00  7.502084970474243e-02
 1.155707168579102e+01  2.018196344375610e+00  1.820018053054810e+00
 1.106188774108887e+01  7.378424406051636e-01  1.789555549621582e+00
 1.227948284149170e+01  1.343575239181519e+00  2.253220081329346e+00
 1.142954635620117e+01  1.410984277725220e+00  3.232261657714844e+00
 1.193801784515381e+01  6.015247702598572e-01  3.168162822723389e+00
 1.106097984313965e+01 -1.383571475744247e-01  2.844252586364746e+00
 1.053379535675049e+01 -1.569530367851257e-02  3.666368961334229e+00
 9.686833381652832e+00  1.090836882591248e+00  4.245253086090088e+00
 1.023062133789062e+01  1.972421646118164e+00  3.362365961074829e+00
 1.056859493255615e+01  1.491320729255676e+00  4.193988323211670e+00
 3.741558551788330e+00 -4.424139976501465e+00  7.887253761291504e-01
 3.363063097000122e+00 -5.144949436187744e+00  8.561571836471558e-01
 4.413084506988525e+00 -5.216261863708496e+00  8.759909272193909e-01
 3.868587732315063e+00 -5.141665458679199e+00  1.671592235565186e+00
 5.967803478240967e+00 -3.487068414688110e+00 -3.097192049026489e+00
 6.775649547576904e+00 -4.304052352905273e+00 -3.296055555343628e+00
 6.179505825042725e+00 -4.432749271392822e+00 -2.366202831268311e+00
 7.103390693664551e+00 -2.879102706909180e+00 -3.208656072616577e+00
-1.581906080245972e+00 -2.080522298812866e+00  3.396935224533081e+00
-3.951145410537720e-01 -2.797036409378052e+00  3.401522636413574e+00
-5.963060259819031e-01 -2.333829641342163e+00  2.628526687622070e+00
-5.824428796768188e-01 -1.827795505523682e+00  3.209325075149536e+00
-8.691992163658142e-01 -1.159855604171753e+00  3.293383836746216e+00
-1.548871755599976e+00 -1.791300415992737e+00  2.637574911117554e+00
-1.250390410423279e+00 -1.362038373947144e+00  4.146559715270996e+00
-2.030712366104126e+00 -1.309825181961060e+00  3.356971740722656e+00
-2.124991655349731e+00 -1.528594732284546e+00  4.325741291046143e+00
-1.300101280212402e+00 -2.951939821243286e+00  3.416738748550415e+00
-1.780060410499573e+00 -2.626789331436157e+00  2.354257822036743e+00
-2.474490165710449e+00 -2.329687356948853e+00  3.305608272552490e+00
 3.676367282867432e+00 -3.724992752075195e+00 -3.982938069384545e-04
 4.303268909454346e+00 -4.486048698425293e+00  4.237340390682220e-02
 5.046753406524658e+00 -3.913810491561890e+00  4.094207286834717e-02
 4.419492244720459e+00 -3.574769020080566e+00  1.030746459960938e+00
-1.633717179298401e+00  2.693636894226074e+00 -1.259220361709595e+00
-2.570320844650269e+00  2.669549703598022e+00 -1.243327856063843e+00
-1.736042022705078e+00  2.092086791992188e+00 -7.164875268936157e-01
