    995       3
-1.394923448562622e+00 -8.861344307661057e-02  5.316790938377380e-01
-1.346607446670532e+00 -5.230329632759094e-01  4.996130168437958e-01
 3.293694496154785e+00  1.748713016510010e+00  3.407381772994995e-01
 2.826441526412964e+00  1.164720296859741e+00  5.828868746757507e-01
 3.371268749237061e+00  1.224117398262024e+00  5.758241415023804e-01
-5.201977213324780e+00 -3.278231197838224e-01 -1.000000000000000e+00
-5.001135349273682e+00  1.791383624076843e-01 -5.323837399482727e-01
-5.203649081894695e+00  2.955794488549373e-01 -1.000000000000000e+00
-5.400380611419678e+00 -4.020952582359314e-01 -5.829663276672363e-01
 8.165681958198547e-01 -1.262574076652527e+00 -7.874702103435993e-03
 3.099480271339417e-01 -1.090977549552917e+00 -2.524798735976219e-02
 3.205270767211914e-01 -1.692206978797913e+00 -3.659464418888092e-01
 5.667990446090698e-01 -1.720964074134827e+00 -5.736012244597077e-04
 3.286671340465546e-01 -1.690530657768250e+00  3.678134381771088e-01
 4.785248339176178e-01 -1.056272387504578e+00 -5.135152935981750e-01
 1.046842813491821e+00 -7.887676358222961e-01 -7.801611791364849e-04
 4.813148448749367e+00  1.559701520431878e+00  1.000000000000000e+00
 5.126626968383789e+00  1.562661290168762e+00  6.514727473258972e-01
 4.521306037902832e+00  1.675385832786560e+00  3.748126327991486e-01
 4.508192415119132e+00  1.040039572473290e+00  1.000000000000000e+00
 4.199383039488358e+00  1.565849615233496e+00  1.000000000000000e+00
 4.430154323577881e+00  1.027410387992859e+00  4.346673786640167e-01
-5.984119161243294e-01 -1.573378003573463e+00  1.000000000000000e+00
-2.991993002380955e-01 -2.094395102500000e+00  1.000000000000000e+00
-8.975979007142865e-01 -2.094395102500000e+00  1.000000000000000e+00
-5.989873530320983e-01 -2.094395102500000e+00  5.109762391166698e-01
 5.518780708312988e+00  1.329907894134521e+00  3.529109358787537e-01
 5.134825706481934e+00  1.743499875068665e+00  3.034906685352325e-01
-3.280581951141357e+00 -1.291923880577087e+00 -3.277709707617760e-02
-3.008985757827759e+00 -1.700015783309937e+00  5.287618190050125e-02
-3.292387485504150e+00 -1.750696063041687e+00 -3.217354714870453e-01
-2.731387376785278e+00 -1.714225530624390e+00 -3.387146890163422e-01
-2.877790689468384e+00 -1.038869619369507e+00  4.768183231353760e-01
-3.438534259796143e+00 -7.842907905578613e-01 -9.349223226308823e-03
-3.370581626892090e+00 -1.221492528915405e+00  5.742987394332886e-01
-2.677622795104980e+00 -1.080239653587341e+00 -3.577460348606110e-02
-5.520256042480469e+00  3.174445629119873e-01 -6.668924689292908e-01
-5.837830543518066e+00  3.393780589103699e-01 -3.327681422233582e-01
-5.215970993041992e+00 -3.004923462867737e-01 -1.371240615844727e-02
-5.221968650817871e+00  3.216075599193573e-01  3.241085261106491e-02
 4.760024070739746e+00 -1.028982639312744e+00 -2.340404130518436e-02
 5.544384956359863e+00 -1.325538396835327e+00 -3.096072077751160e-01
 5.065284729003906e+00 -8.975238204002380e-01 -4.838000535964966e-01
 5.498353958129883e+00 -9.072464704513550e-01 -5.351810529828072e-02
 5.071921825408936e+00 -1.413114309310913e+00  8.246351778507233e-02
 5.878579616546631e+00 -1.317635059356689e+00  3.436999395489693e-02
 1.196663832926832e+00 -5.326425864698072e-01 -1.000000000000000e+00
 1.046842813491821e+00 -1.054065346717834e+00 -5.006752014160156e-01
 1.342695593833923e+00 -5.198392271995544e-01 -4.894820451736450e-01
 7.365548014640808e-01 -5.367612242698669e-01 -4.822460711002350e-01
 4.510408878326416e+00 -1.716865539550781e+00 -3.340265750885010e-01
 5.119677066802979e+00 -1.357931017875671e+00 -6.107844114303589e-01
 5.100042343139648e+00 -1.720682859420776e+00 -4.699017405509949e-01
 4.566200733184814e+00 -1.754441976547241e+00  4.441484808921814e-01
 6.283185305000000e+00 -8.975979010714286e-01  1.000000000000000e+00
 6.283185305000000e+00 -6.130911570464272e-01  5.091247943720985e-01
 6.283185305000000e+00 -1.256021384340242e+00  4.789490444261487e-01
 5.925586700439453e+00 -9.489532709121704e-01  3.325059711933136e-01
 5.006972789764404e+00 -1.005148768424988e+00  4.862104356288910e-01
 5.476378917694092e+00 -1.713028192520142e+00  4.530972987413406e-02
-5.455403327941895e+00 -8.924591541290283e-01  5.518329516053200e-02
-5.879227161407471e+00 -1.270382046699524e+00  5.962592735886574e-02
-5.511067390441895e+00 -1.335837006568909e+00  3.620313405990601e-01
-5.906024456024170e+00 -9.245053529739380e-01  3.910593688488007e-01
-4.622206687927246e+00 -8.100790381431580e-01 -7.459993474185467e-03
-5.000702857971191e+00 -9.271596074104309e-01 -5.520299673080444e-01
-5.528512477874756e+00 -1.329983353614807e+00 -2.943122386932373e-01
-4.753121852874756e+00 -1.371615529060364e+00 -5.174804478883743e-02
 5.903223991394043e+00 -6.218274235725403e-01  2.404676191508770e-02
 5.911705493927002e+00 -3.327506780624390e-01 -3.241108953952789e-01
 5.921517372131348e+00 -2.802828550338745e-01  3.428212702274323e-01
 5.945958137512207e+00 -9.795551300048828e-01 -3.330883085727692e-01
 6.283185305000000e+00 -6.115001168434440e-01 -4.792856206454864e-01
 6.283185305000000e+00 -3.087822212691604e-01  2.253280041898150e-02
 6.283185305000000e+00 -9.278025494853375e-01  1.261722017352853e-02
 3.902193069458008e+00 -1.721587777137756e+00 -3.373204171657562e-01
 3.477265834808350e+00 -1.071865200996399e+00 -6.006462574005127e-01
 3.287607192993164e+00 -1.717095136642456e+00 -3.322024941444397e-01
 3.559985160827637e+00 -1.720373868942261e+00 -6.965043954551220e-03
 3.594747781753540e+00 -1.057421088218689e+00 -6.656792946159840e-03
 3.589487780819538e+00 -2.094395102500000e+00  5.143650754869810e-01
 3.892596006393433e+00 -1.748694777488708e+00  3.460451960563660e-01
 3.323626518249512e+00 -1.700011730194092e+00  3.714028000831604e-01
 3.888769594530153e+00 -2.094395102500000e+00  2.254170347324892e-02
 4.199445724487305e+00 -1.648282051086426e+00  1.472931634634733e-02
 3.829104185104370e+00 -1.223841786384583e+00  5.432353019714355e-01
 5.115869508032469e+00  2.094395102500000e+00  8.262785205017371e-03
 2.546010732650757e+00 -1.561116892844439e-03 -4.995796382427216e-01
 2.912549972534180e+00 -5.568150281906128e-01 -7.671955972909927e-02
 3.124791860580444e+00  1.181523129343987e-02 -5.568809509277344e-01
 2.832471370697021e+00 -3.603677498176694e-03  5.820860713720322e-02
 3.446679115295410e+00 -2.649028599262238e-01  1.415571570396423e-02
 3.372824430465698e+00  3.150516450405121e-01 -3.976279869675636e-02
-3.464605331420898e+00  8.092988729476929e-01  3.838996961712837e-02
-3.166468620300293e+00  5.028305649757385e-01 -4.947389960289001e-01
-3.005856275558472e+00  1.075964689254761e+00  3.864896297454834e-02
-2.950163602828979e+00  4.669717550277710e-01 -2.648973092436790e-02
-3.438912391662598e+00  1.046593427658081e+00 -5.004861354827881e-01
-3.570488691329956e+00  1.690801620483398e+00  2.169515565037727e-02
-2.538947343826294e+00  3.810078650712967e-02 -9.578822180628777e-03
-1.948405742645264e+00 -2.885007560253143e-01 -1.298467908054590e-02
-2.002438545227051e+00  1.039155647158623e-01 -5.505514740943909e-01
-1.911729454994202e+00  3.328714370727539e-01 -2.073544636368752e-02
-2.258782863616943e+00 -5.266477465629578e-01 -4.745858907699585e-01
-1.946966171264648e+00 -1.715639606118202e-02  4.447347819805145e-01
-2.522397756576538e+00 -4.944497942924500e-01  4.907881319522858e-01
-2.593869924545288e+00 -6.579809635877609e-02  5.427586436271667e-01
-2.855472564697266e+00 -5.305509567260742e-01 -4.987144768238068e-01
-2.599189758300781e+00  8.674725145101547e-02 -5.360772013664246e-01
-3.134076833724976e+00  4.539553076028824e-03 -4.834759235382080e-01
-3.060596227645874e+00 -3.097684979438782e-01  1.477221772074699e-02
-2.658152341842651e+00 -5.766463875770569e-01 -6.308421492576599e-02
-2.839353799819946e+00  5.277751088142395e-01  4.843847751617432e-01
-3.108622312545776e+00  4.701623227447271e-03  4.954277873039246e-01
 5.801480986548427e+00 -1.210060202949018e+00 -1.000000000000000e+00
 5.552080154418945e+00 -9.343518614768982e-01 -6.350424885749817e-01
-2.363439559936523e+00  5.535299181938171e-01 -1.017864048480988e-02
 5.409734735000268e+00 -1.608318692435281e+00  1.000000000000000e+00
 5.570452690124512e+00 -1.695234656333923e+00  5.991701483726501e-01
 5.260551768062195e+00 -2.094395102500000e+00  5.636733802741436e-01
 5.072862625122070e+00 -1.761348962783813e+00  5.376025438308716e-01
 5.983653048202408e-01 -1.576139048587456e+00 -1.000000000000000e+00
 8.974875937544023e-01 -1.056166738954470e+00 -1.000000000000000e+00
 2.991349987479730e-01 -1.056282813189917e+00 -1.000000000000000e+00
-2.532555818557739e+00  5.136225223541260e-01 -5.002493858337402e-01
 5.177777607686268e+00 -9.824455268875819e-01 -1.000000000000000e+00
 5.209372883281141e+00 -3.008209919227552e-01 -1.000000000000000e+00
 4.743184264139239e+00 -5.684076291889617e-01 -1.000000000000000e+00
 4.745699882507324e+00 -6.155424118041992e-01 -5.823363065719604e-01
-1.994919061660767e+00  1.279311895370483e+00 -1.966038048267365e-01
-1.469146013259888e+00  1.046766638755798e+00  3.777505457401276e-02
-1.635372757911682e+00  1.069505691528320e+00 -4.985889494419098e-01
-1.494887351989746e+00  1.714530587196350e+00 -3.230391740798950e-01
-1.495014756064458e+00  2.094395102500000e+00  1.376651728201168e-02
-1.794394720008376e+00  2.094395102500000e+00  5.110929676275447e-01
-1.830419421195984e+00  1.731884837150574e+00  1.249529048800468e-02
-1.495336294174194e+00  1.750271797180176e+00  3.407048285007477e-01
-2.087577819824219e+00  1.752574205398560e+00  3.570548295974731e-01
-2.093306456148436e+00  2.094395102500000e+00  1.408252895221427e-02
-2.404201030731201e+00  1.755461215972900e+00  2.513676183298230e-03
-1.794197632618695e+00  2.094395102500000e+00 -4.872946986460387e-01
-2.064808607101440e+00  1.704771399497986e+00 -3.691870570182800e-01
-8.983904712054659e-01 -2.094395102500000e+00  1.369844714979165e-02
-1.197414755821228e+00 -1.749037265777588e+00  8.897968567907810e-03
-5.990192294120789e-01 -1.749046802520752e+00  8.851890452206135e-03
-8.981268405914307e-01 -1.750263094902039e+00 -3.223511576652527e-01
-8.981443047523499e-01 -1.747812151908875e+00  3.402646780014038e-01
-5.991821661237072e-01 -2.094395102500000e+00 -4.874620522760852e-01
-3.000078538052504e-01 -2.094395102500000e+00  1.364230778896223e-02
-6.458972347900271e-04 -1.749046802520752e+00  8.828056044876575e-03
-2.997511327266693e-01 -1.747829675674438e+00  3.402313292026520e-01
-2.997471392154694e-01 -1.750263094902039e+00 -3.223877251148224e-01
-3.292232281036407e+00 -2.094395102500000e+00  1.441971379648351e-02
-3.593279600143433e+00 -1.748988747596741e+00  9.147429838776588e-03
-3.591505586045332e+00 -2.094395102500000e+00  5.115051030299229e-01
-3.301390409469604e+00 -1.731045842170715e+00  3.660100102424622e-01
 4.190153053494773e+00  2.094395102500000e+00 -4.862012893604859e-01
-3.591377049867122e+00 -2.094395102500000e+00 -4.865980508568482e-01
-3.892817020416260e+00 -1.750935196876526e+00 -3.219801485538483e-01
-4.205329418182373e+00 -1.083605766296387e+00 -2.192634344100952e-02
-4.195993900299072e+00 -1.747878074645996e+00  8.079673163592815e-03
-3.894454240798950e+00 -1.746056437492371e+00  3.407381772994995e-01
-3.891416175109859e+00 -2.094395102500000e+00  1.449409053998295e-02
 2.394883632659912e+00 -2.628174126148224e-01  1.962319947779179e-04
 2.812473297119141e+00 -5.284042954444885e-01  5.021393895149231e-01
 2.546010732650757e+00  1.561911311000586e-03  4.995796382427216e-01
-4.496687776768095e+00 -2.094395102500000e+00  1.213417642052941e-02
-4.575862407684326e+00 -1.743358373641968e+00  2.988494038581848e-01
-4.506218433380127e+00 -1.729075551033020e+00 -3.354327678680420e-01
 3.127122879028320e+00 -6.294518709182739e-02  5.398127436637878e-01
 2.496641397476196e+00 -6.445053219795227e-01 -5.143693685531616e-01
-2.991980151952686e+00 -1.576174635632896e+00 -1.000000000000000e+00
-3.143391132354736e+00 -1.054416418075562e+00 -5.007435083389282e-01
 3.518978357315063e+00 -6.700194478034973e-01  5.023761391639709e-01
 3.150998115539551e+00 -1.141135096549988e+00  6.327393651008606e-01
 3.210091590881348e+00 -4.977897107601166e-01 -6.295678615570068e-01
-2.381818771362305e+00  1.113676190376282e+00  1.229826454073191e-02
-2.543238162994385e+00  1.139440536499023e+00  6.262374520301819e-01
-2.713352203369141e+00  1.697811961174011e+00  3.862941861152649e-01
-2.973002910614014e+00  1.736937522888184e+00  2.111996524035931e-02
-1.923503398895264e+00  8.445571064949036e-01 -2.025002986192703e-02
-1.941012501716614e+00  1.062752723693848e+00  5.047610998153687e-01
-2.204467773437500e+00  5.590260028839111e-01  5.232688784599304e-01
-2.254094600677490e+00  1.069937825202942e+00 -5.649455785751343e-01
-3.601999503503234e+00 -5.367888581355543e-01 -1.000000000000000e+00
-3.922107074924949e+00 -1.147020842863075e-02 -1.000000000000000e+00
-4.209487430921012e+00 -5.462850530814735e-01 -1.000000000000000e+00
-3.995331764221191e+00 -1.405100524425507e-01 -4.942623078823090e-01
 4.058274745941162e+00  1.057027816772461e+00  4.974806904792786e-01
 3.894871473312378e+00  1.747303724288940e+00  3.409399688243866e-01
 4.496687776768095e+00  2.094395102500000e+00  1.213417642052939e-02
-4.211683337756267e+00 -5.217745869558027e-01  1.000000000000000e+00
-3.603828404607397e+00 -5.171545638718505e-01  1.000000000000000e+00
-3.900593197054796e+00 -1.042147596830826e+00  1.000000000000000e+00
-3.682731151580811e+00 -3.449353277683258e-01  5.696384310722351e-01
 5.942171573638916e+00  4.394436776638031e-01  3.694976866245270e-01
 5.566907882690430e+00  7.001065015792847e-01 -6.266076862812042e-02
 5.557874679565430e+00  9.480388760566711e-01  6.836325526237488e-01
 5.202434062957764e+00  4.825225472450256e-01 -5.084251761436462e-01
 5.931543350219727e+00  3.021241724491119e-01 -3.009420335292816e-01
-3.564895868301392e+00 -5.938440933823586e-02  1.936897169798613e-03
-3.184909582138062e+00 -5.272022485733032e-01  5.134334564208984e-01
-3.898704767227173e+00  1.518613249063492e-01  5.313152074813843e-01
-4.316672325134277e+00 -8.692997507750988e-03  8.820111863315105e-03
-3.944596767425537e+00  5.972777605056763e-01  2.987175248563290e-03
-3.888769594530153e+00  2.094395102500000e+00  2.254170347324892e-02
-4.189442882707533e+00  2.094395102500000e+00  5.194236914641771e-01
-4.210544109344482e+00  1.667522311210632e+00  3.955464810132980e-02
-3.887674331665039e+00  1.657535910606384e+00  4.053215384483337e-01
-4.484506410543771e+00  2.094395102500000e+00  3.734553405601038e-02
-4.190296669772650e+00  2.094395102500000e+00 -4.770625200907473e-01
-4.502697944641113e+00  1.717408061027527e+00 -2.970038652420044e-01
-3.893580436706543e+00  1.075737476348877e+00  1.849188655614853e-02
-4.089879035949707e+00  1.035564661026001e+00 -5.807664394378662e-01
-3.896984577178955e+00  1.736082673072815e+00 -3.290421366691589e-01
-4.482415199279785e+00  1.763933420181274e+00  3.738068640232086e-01
-4.350797176361084e+00  1.080326199531555e+00  4.494793117046356e-01
 5.086388104047619e+00 -2.094395102500000e+00 -1.000000000000000e+00
 4.813148448749367e+00 -1.559701520431878e+00 -1.000000000000000e+00
 4.797073794484543e+00 -2.094395102500000e+00 -4.606898066145859e-01
-1.871125340461731e+00 -1.401040077209473e+00  8.726365119218826e-02
-1.496580362319946e+00 -1.747761249542236e+00  3.403155207633972e-01
-1.496522426605225e+00 -1.750262260437012e+00 -3.222883939743042e-01
-1.496217370033264e+00 -1.051912307739258e+00 -9.628873667679727e-04
-1.047450661659241e+00 -1.049812555313110e+00  4.992666244506836e-01
-8.977748751640320e-01 -1.051990151405334e+00 -9.319033706560731e-04
-1.346619367599487e+00 -1.054152727127075e+00 -5.007331967353821e-01
-1.197576305799940e+00 -2.094395102500000e+00 -4.874000718720689e-01
-4.638825893402100e+00 -1.582734137773514e-01 -4.778503179550171e-01
-4.697157382965088e+00  3.597702980041504e-01 -7.966065779328346e-03
-4.307444095611572e+00  3.978933393955231e-01 -5.109237432479858e-01
-4.132523536682129e+00  6.698343157768250e-01  5.016770362854004e-01
-4.335216999053955e+00  8.702086806297302e-01 -8.513449691236019e-03
-4.609582424163818e+00  6.578236818313599e-01  5.873581171035767e-01
 4.811703537972730e+00 -1.564642036064802e+00  1.000000000000000e+00
 4.365263938903809e+00 -1.054422855377197e+00  4.980256855487823e-01
-5.028985023498535e+00  9.444193243980408e-01  5.388037767261267e-03
-4.675509452819824e+00  6.075580716133118e-01 -5.220772027969360e-01
-5.155680179595947e+00  5.123227834701538e-01  5.039126276969910e-01
-4.652701854705811e+00  1.656515747308731e-01  4.727602005004883e-01
-7.106600999832153e-01  1.055199027061462e+00  6.143411993980408e-01
-5.986911058425903e-01  1.052013278007507e+00  9.231643052771688e-04
-8.969963192939758e-01  1.750267028808594e+00  3.406301438808441e-01
-2.986436486244202e-01  1.750263810157776e+00  3.406126499176025e-01
-1.274973273277283e+00  1.010373950004578e+00  5.567983388900757e-01
-1.121283888816833e+00  1.401805043220520e+00  8.841085433959961e-02
-8.917584419250488e-01  5.801110267639160e-01  1.224900782108307e-02
-1.053109526634216e+00  1.044700980186462e+00 -5.027058720588684e-01
-7.481507658958435e-01  5.230957269668579e-01 -4.996289014816284e-01
-7.544651627540588e-01  1.433888673782349e+00 -4.238714277744293e-01
-1.046440839767456e+00  1.750135183334351e+00 -2.376528382301331e-01
-2.993880510330200e-01  5.264038443565369e-01  4.607876762747765e-04
-4.489430487155914e-01  5.296961069107056e-01  5.003613829612732e-01
-1.196789684471148e+00 -1.576177534595712e+00 -1.000000000000000e+00
-1.795184920088097e+00 -1.576176040779098e+00 -1.000000000000000e+00
-5.977481007575989e-01  1.749040365219116e+00  9.412780404090881e-03
-1.047326683998108e+00 -5.297104120254517e-01 -5.003709197044373e-01
-1.496219754219055e+00 -5.263895392417908e-01 -4.941550432704389e-04
-1.608485102653503e+00 -1.136736989021301e+00  5.369574427604675e-01
-2.393582105911749e+00 -1.576175098014553e+00 -1.000000000000000e+00
-2.692793702142856e+00 -2.094395102500000e+00 -1.000000000000000e+00
-2.394412031770896e+00 -2.094395102500000e+00 -4.871492198921836e-01
-1.945057034492493e+00 -1.054118514060974e+00 -5.007641911506653e-01
-1.957165479660034e+00 -7.952480316162109e-01 -3.946885000914335e-03
-1.645768284797668e+00 -5.297445654869080e-01 -5.003868341445923e-01
-1.495996501190476e+00 -2.094395102500000e+00 -1.000000000000000e+00
-2.094395101666667e+00 -2.094395102500000e+00 -1.000000000000000e+00
-1.795985710835558e+00 -2.094395102500000e+00 -4.873002943587086e-01
 1.982558012008667e+00 -5.085244774818420e-01 -5.750582814216614e-01
 2.243864297866821e+00 -5.238893628120422e-01  4.996193647384644e-01
 2.393339157104492e+00  1.745808482170105e+00  9.087050333619118e-03
 2.246340036392212e+00  1.071769952774048e+00  5.207743048667908e-01
 2.243880271911621e+00  7.887715697288513e-01  7.658608956262469e-04
 2.526049137115479e+00  5.837067365646362e-01  5.374881625175476e-01
 2.704529762268066e+00  1.729545950889587e+00 -3.505767881870270e-01
 2.219720602035522e+00  1.267321825027466e+00 -2.255380898714066e-01
 1.870551705360413e+00  1.401700258255005e+00  8.840291202068329e-02
-1.795594847679715e+00 -5.193968547829395e-01  1.000000000000000e+00
-2.094953195528211e+00 -1.046974780277387e+00  1.000000000000000e+00
-2.395008150143845e+00 -5.188264572149033e-01  1.000000000000000e+00
-1.919546127319336e+00 -5.106282234191895e-01  5.012321472167969e-01
-2.672645568847656e+00  1.681105971336365e+00 -3.218435049057007e-01
-2.816655158996582e+00  1.026126503944397e+00 -4.970333874225616e-01
-3.269561052322388e+00  1.728193759918213e+00 -3.321349620819092e-01
-5.400004318140339e+00 -1.615371254068220e+00 -1.000000000000000e+00
-5.792253756698361e+00 -1.223859148973072e+00 -1.000000000000000e+00
-5.545292854309082e+00 -9.612952470779419e-01 -6.194448471069336e-01
-3.187500238418579e+00  1.201414942741394e+00  5.322812795639038e-01
-3.429462432861328e+00  5.140944719314575e-01  5.470646023750305e-01
 3.663748264312744e+00 -3.820724189281464e-01 -5.587288737297058e-01
 3.925129175186157e+00 -5.838871002197266e-01  2.074021287262440e-02
 4.005999088287354e+00 -1.196200013160706e+00 -5.600715279579163e-01
-6.283185305000000e+00 -8.975979010714286e-01 -1.000000000000000e+00
-6.283185305000000e+00 -1.251642412291615e+00 -4.175598243027664e-01
-5.894752025604248e+00 -9.275647997856140e-01 -3.514674007892609e-01
 3.290101720947443e+00 -2.094395102500000e+00  1.704065262914323e-02
 3.589727703788151e+00 -2.094395102500000e+00 -4.834113727441766e-01
-5.133078575134277e+00 -1.740709662437439e+00 -3.184440135955811e-01
-5.115869508032469e+00 -2.094395102500000e+00  8.262785205017364e-03
-4.312688350677490e+00 -1.060930252075195e+00 -5.884552597999573e-01
-4.801076502121563e+00 -1.572938595622874e+00 -1.000000000000000e+00
-2.992863307070226e+00 -2.094395102500000e+00 -4.869243190761569e-01
-1.476109493523836e-02  1.739341616630554e+00  3.403473179787397e-03
 6.236840486526489e-01  1.680899381637573e+00  7.539439946413040e-03
 3.090947866439819e-01  1.700678348541260e+00  3.810555338859558e-01
 3.053226768970490e-01  1.068213939666748e+00  2.027783542871475e-02
-1.256266087293625e-01  1.047789812088013e+00  5.150097012519836e-01
 8.040901996545317e-04  2.094395102500000e+00 -4.874926403220294e-01
 2.963230311870575e-01  1.725618124008179e+00 -3.413793146610260e-01
-2.972414195537567e-01  1.739478230476379e+00 -3.554269969463348e-01
-2.983568982032594e-01  2.094395102500000e+00  1.362350777951217e-02
 6.115585023589812e-04  2.094395102500000e+00  5.109457000209209e-01
 6.283185305000000e+00  8.823817648175415e-01  7.993277358909959e-02
 5.926344394683838e+00  9.146841764450073e-01  3.769433796405792e-01
-2.995154129258722e+00 -5.340511531208463e-01 -1.000000000000000e+00
-2.393791900452012e+00 -5.332893773802698e-01 -1.000000000000000e+00
-2.695871546462747e+00 -8.086501504907454e-03 -1.000000000000000e+00
 5.403111934661865e+00 -4.029079675674438e-01  5.825802087783813e-01
 8.983904712054659e-01  2.094395102500000e+00  1.369844714979165e-02
 5.991821661237072e-01  2.094395102500000e+00 -4.874620522760852e-01
 1.197576305799940e+00  2.094395102500000e+00 -4.874000718720689e-01
 8.980815410614014e-01  1.747820138931274e+00 -3.219539523124695e-01
-5.444134461689679e+00 -2.094395102500000e+00  4.770947993051221e-01
-5.134807586669922e+00 -1.733932137489319e+00  3.290691375732422e-01
-5.516988754272461e+00 -1.677456259727478e+00  2.921235002577305e-02
 3.591377049867122e+00  2.094395102500000e+00 -4.865980508568482e-01
 3.576047658920288e+00  1.745401740074158e+00 -4.123255203012377e-04
 3.292640924453735e+00  1.748571634292603e+00 -3.212730884552002e-01
 3.822897911071777e+00  1.223589897155762e+00 -5.746793150901794e-01
 5.563604354858398e+00  9.519619345664978e-01 -6.229451894760132e-01
 5.545312881469727e+00  1.314972043037415e+00 -3.135064244270325e-01
 5.910962104797363e+00  9.184610843658447e-01 -4.471825361251831e-01
-3.747802257537842e+00  1.204888224601746e+00  5.795501470565796e-01
-3.589487780819538e+00  2.094395102500000e+00  5.143650754869810e-01
-3.293948650360107e+00  1.767951726913452e+00  4.253817200660706e-01
-5.975550587996562e-01  2.094395102500000e+00 -4.874907383828586e-01
-8.966994444688458e-01  2.094395102500000e+00  1.365183756011755e-02
-4.687935352325439e+00 -3.747856318950653e-01  4.116740822792053e-02
-4.307444095611572e+00 -3.978925347328186e-01  5.109245777130127e-01
-4.738748550415039e+00 -5.701612234115601e-01  4.992364346981049e-01
-5.099616050720215e+00 -1.812913566827774e-01  5.727018713951111e-01
-4.211496829986572e+00 -5.395196080207825e-01  3.285892773419619e-03
-4.971218109130859e+00 -9.534960389137268e-01  5.106306076049805e-01
-5.562063217163086e+00  7.177705764770508e-01  9.434389322996140e-02
-5.937474250793457e+00  3.309742510318756e-01  3.611907958984375e-01
 3.594811450020901e+00  1.570444309222939e+00  1.000000000000000e+00
 3.591505586045332e+00  2.094395102500000e+00  5.115051030299229e-01
-4.730243682861328e+00 -4.704840779304504e-01 -6.038789153099060e-01
-5.068112373352051e+00  8.538967967033386e-01 -4.896806478500366e-01
-3.589727703788151e+00  2.094395102500000e+00 -4.834113727441766e-01
-3.290101720947443e+00  2.094395102500000e+00  1.704065262914322e-02
-1.947598576545715e+00  5.823546051979065e-01 -4.947334229946136e-01
-1.346504211425781e+00 -3.594938432797790e-03 -4.999879896640778e-01
-1.346504211425781e+00  0.000000000000000e+00  0.000000000000000e+00
-1.400934338569641e+00  4.968816637992859e-01 -5.312969088554382e-01
-1.002593755722046e+00  5.090385079383850e-01  4.991697072982788e-01
-7.480466961860657e-01  0.000000000000000e+00  0.000000000000000e+00
-1.481878042221069e+00  5.382365584373474e-01  2.290114760398865e-02
 1.495996501190476e+00  2.094395102500000e+00 -1.000000000000000e+00
 1.795089009970406e+00  1.573401657324127e+00 -1.000000000000000e+00
 1.795985710835558e+00  2.094395102500000e+00 -4.873002943587086e-01
 1.496435046195984e+00  1.747820138931274e+00 -3.219015002250671e-01
-1.662351965904236e+00  5.618797540664673e-01  4.545209705829620e-01
-5.174412692905663e+00  9.800632973114203e-01 -1.000000000000000e+00
-4.739428129336697e+00  5.632733900305963e-01 -1.000000000000000e+00
-4.505589865550852e+00  1.036924362697283e+00 -1.000000000000000e+00
-3.895638433301718e+00  1.058838080551995e+00  1.000000000000000e+00
-4.209487430921012e+00  5.462850530814735e-01  1.000000000000000e+00
-4.499114036782789e+00  1.058135248994521e+00  1.000000000000000e+00
-7.480466961860657e-01  3.508341964334249e-03  4.999943673610687e-01
 2.989510893821716e-01 -5.264030694961548e-01 -4.464873636607081e-04
 7.476661205291748e-01 -1.049855470657349e+00  4.992952346801758e-01
 1.513623893260956e-01 -5.408646464347839e-01 -4.971326887607574e-01
 2.993498827418801e+00  1.573282020329240e+00  1.000000000000000e+00
 4.485545456409454e-01 -5.231211185455322e-01  4.996511340141296e-01
 1.367474794387817e-01 -1.069059133529663e+00  4.823604822158813e-01
-2.993880510330200e-01 -5.264046192169189e-01 -4.615821526385844e-04
-2.993832826614380e-01 -1.052013993263245e+00 -9.207808761857450e-04
 1.196742718207602e+00  1.573396566819820e+00 -1.000000000000000e+00
 1.355510234832764e+00  1.135477781295776e+00 -6.214341521263123e-01
-2.693656604004709e+00 -2.094395102500000e+00  1.415556576575604e-02
-2.395744085311890e+00 -1.747353792190552e+00  8.794688619673252e-03
-2.700135469436646e+00 -1.707186579704285e+00  3.728900551795959e-01
-2.992685332230316e+00 -2.094395102500000e+00  5.114325824429478e-01
 3.000078538052504e-01  2.094395102500000e+00  1.364230778896223e-02
-7.480466961860657e-01 -3.508341964334249e-03 -4.999951422214508e-01
 1.196753930319043e+00  1.576019981975410e+00  1.000000000000000e+00
 1.495912368255420e+00  1.055817278335370e+00  1.000000000000000e+00
 8.974875937544023e-01  1.056166738954470e+00  1.000000000000000e+00
 1.084438323974609e+00  1.054981350898743e+00  6.143141984939575e-01
-3.488316059112549e+00 -4.393991827964783e-01 -5.276622772216797e-01
-6.370484571871504e-05 -5.329639997022900e-01 -1.000000000000000e+00
 2.990960799960888e-01 -6.880298508957982e-03 -1.000000000000000e+00
-2.992551524137664e-01 -6.932465402826010e-03 -1.000000000000000e+00
-1.496662199497223e-01 -3.478946862742305e-03 -4.999951422214508e-01
-5.474197387695312e+00  1.100457906723022e+00 -2.161912471055984e-01
-4.741378784179688e+00  1.383411765098572e+00  8.456566184759140e-02
-5.135475635528564e+00  1.371909499168396e+00 -6.167746186256409e-01
-5.319654941558838e+00  1.340831756591797e+00  5.108149051666260e-01
 1.184016227722168e+00  4.141988754272461e-01  3.751606121659279e-02
 7.497190237045288e-01  8.055156469345093e-01  3.753671795129776e-02
 1.046186685562134e+00  5.556558966636658e-01 -5.022410750389099e-01
 8.992938995361328e-01  1.831233873963356e-02 -4.744150638580322e-01
-4.503967761993408e+00  1.042238116264343e+00 -4.989202320575714e-01
 4.592638909816742e-01  4.863073825836182e-01 -4.385014474391937e-01
-5.072385921707173e+00  2.094395102500000e+00  7.771407344737842e-02
-5.103602409362793e+00  1.741637587547302e+00  3.757771253585815e-01
-5.106770038604736e+00  1.720865607261658e+00 -4.482852518558502e-01
 5.982774278453206e-01 -5.328870728492875e-01 -1.000000000000000e+00
-5.474980831146240e+00  1.706498622894287e+00  5.606991425156593e-02
-4.945714950561523e+00  9.778597950935364e-01  5.187833905220032e-01
-7.907790451875767e-05 -5.198166994670775e-01  1.000000000000000e+00
 2.991347314614596e-01 -1.047714404510619e+00  1.000000000000000e+00
-2.992329929061184e-01 -1.047705385558307e+00  1.000000000000000e+00
-4.515267372131348e+00 -1.135368108749390e+00  5.392105579376221e-01
 2.394994448963673e+00 -5.306969842961502e-01 -1.000000000000000e+00
 2.696473422643447e+00 -3.926595944188492e-03 -1.000000000000000e+00
 2.095128000941149e+00 -5.525514228430028e-03 -1.000000000000000e+00
-5.816870689392090e+00 -1.608873486518860e+00 -5.841873884201050e-01
 3.291192302619048e+00  2.094395102500000e+00  1.000000000000000e+00
 2.992685332230316e+00  2.094395102500000e+00  5.114325824429478e-01
-3.682731151580811e+00  3.449361324310303e-01 -5.696384310722351e-01
 5.983653048202408e-01  1.576139048587456e+00  1.000000000000000e+00
-1.497726738452911e-01 -5.231115818023682e-01  4.996384382247925e-01
 4.315878868103027e+00 -8.526740670204163e-01  4.290092270821333e-03
 4.250108718872070e+00 -4.130087494850159e-01 -5.104979276657104e-01
 4.136306762695312e+00 -6.634182929992676e-01  5.009794831275940e-01
 4.616228103637695e+00 -6.501340866088867e-01  5.862744450569153e-01
-2.095205500601834e+00 -2.094395102500000e+00  1.394269450487277e-02
-2.394195359045001e+00 -2.094395102500000e+00  5.112637695704351e-01
-2.095122098922729e+00 -1.747646927833557e+00  3.403759002685547e-01
-2.259135484695435e+00 -1.060639500617981e+00  4.769676923751831e-01
-2.512868165969849e+00 -1.072167158126831e+00 -4.843815863132477e-01
-4.109700202941895e+00 -6.877962946891785e-01 -4.871995449066162e-01
-4.012518405914307e+00 -1.132648706436157e+00  5.358372926712036e-01
 4.131921291351318e+00  6.687030196189880e-01 -4.880941212177277e-01
 4.310350894927979e+00  4.011553823947906e-01  5.110993385314941e-01
 1.596506953239441e+00  1.297648072242737e+00 -2.409315705299377e-01
 1.945389986038208e+00  1.750133514404297e+00 -2.375042736530304e-01
 2.000574827194214e+00  1.223162531852722e+00 -6.311281919479370e-01
 1.169054865837097e+00  1.149930596351624e+00 -1.419146638363600e-02
 1.645201086997986e+00  7.887604832649231e-01  7.261378341354430e-04
 1.654764771461487e+00  1.075996398925781e+00  5.669849514961243e-01
 1.496498584747314e+00  1.750125646591187e+00  3.407032191753387e-01
 2.095031499862671e+00  1.749907970428467e+00  3.407397866249084e-01
 3.891416175109859e+00  2.094395102500000e+00  1.449409053998295e-02
 1.496788992083004e+00  2.094395102500000e+00  1.379497900879659e-02
-4.489430487155914e-01 -5.296968817710876e-01 -5.003606081008911e-01
-4.490399658679962e-01 -1.049861073493958e+00  4.992777407169342e-01
-1.297879964113235e-01  1.887163892388344e-02  5.019677877426147e-01
 7.471592724323273e-02 -1.906707620946690e-05  3.972307695221389e-06
-1.945463895797729e+00 -1.751330018043518e+00 -2.376901805400848e-01
-6.283185305000000e+00  1.495996501785714e+00 -1.000000000000000e+00
-5.892012981614215e+00  1.699196455530465e+00 -1.000000000000000e+00
-6.283185305000000e+00  2.094395102500000e+00 -1.000000000000000e+00
-5.810405731201172e+00  1.611523866653442e+00 -4.374805688858032e-01
-1.496788992083004e+00 -2.094395102500000e+00  1.379497900879663e-02
 2.693656604004709e+00  2.094395102500000e+00  1.415556576575607e-02
 2.394195359045001e+00  2.094395102500000e+00  5.112637695704351e-01
 2.095205500601834e+00  2.094395102500000e+00  1.394269450487276e-02
 2.394412031770896e+00  2.094395102500000e+00 -4.871492198921836e-01
-4.475376605987549e+00  1.331519126892090e+00  6.181355714797974e-01
 5.444799599511607e+00  2.094395102500000e+00 -4.662278477904664e-01
 5.086388104047618e+00  2.094395102500000e+00 -1.000000000000000e+00
 2.646532535552979e+00  5.838370323181152e-01 -1.735977828502655e-02
 2.847674131393433e+00  5.302585959434509e-01 -4.963700175285339e-01
 3.703727245330811e+00  4.334105253219604e-01  5.119017362594604e-01
 3.133386373519897e+00  5.461128354072571e-01  5.320953726768494e-01
 3.538215398788452e+00  6.448929905891418e-01 -4.978389739990234e-01
-5.113120079040527e+00 -1.565631747245789e+00  6.445196270942688e-01
-5.409272320978910e+00  1.602103245287603e+00 -1.000000000000000e+00
-5.684786704523810e+00  2.094395102500000e+00 -1.000000000000000e+00
 1.795216083526611e+00  2.629937827587128e-01  3.654522879514843e-05
 5.900948524475098e+00  1.278641343116760e+00  5.351333692669868e-02
 5.053648948669434e+00  8.748196959495544e-01  4.815580844879150e-01
 4.199383039488358e+00 -1.565849615233496e+00 -1.000000000000000e+00
 4.520857810974121e+00 -1.145204305648804e+00 -5.043162107467651e-01
 4.660799026489258e+00 -1.650040894746780e-01  4.747416079044342e-01
 7.654668688774109e-01  3.253637626767159e-02  2.328725531697273e-02
 1.334714412689209e+00  5.379664301872253e-01  5.045498013496399e-01
 1.197188377380371e+00  1.749019742012024e+00  9.463625960052013e-03
 9.001614451408386e-01  1.673226475715637e+00  4.144769310951233e-01
 4.518023133277893e-01  1.072820186614990e+00  5.106019973754883e-01
 7.476661205291748e-01  1.049855470657349e+00 -4.992952346801758e-01
 5.537579536437988e+00  1.680240035057068e+00  2.903121337294579e-02
 5.801139082182771e+00 -1.214556279485928e+00  1.000000000000000e+00
 4.801000190202923e+00  2.094395102500000e+00  5.045399611391653e-01
 5.830525875091553e+00  1.607454657554626e+00  6.241845488548279e-01
 5.801480986548427e+00  1.210060202949018e+00  1.000000000000000e+00
 5.410873486266649e+00  1.602772061644062e+00  1.000000000000000e+00
-5.855259418487549e+00 -1.663408517837524e+00  6.453776359558105e-01
 2.094395101666667e+00  2.094395102500000e+00 -1.000000000000000e+00
 2.170680284500122e+00  1.661290526390076e+00 -6.209352016448975e-01
-5.409272320978910e+00 -1.602103245287603e+00  1.000000000000000e+00
-5.514023780822754e+00 -9.242121577262878e-01  6.726800799369812e-01
-5.799635272568356e+00 -1.209092325579010e+00  1.000000000000000e+00
 3.901848952938946e+00 -1.046563859826313e+00 -1.000000000000000e+00
 4.508192415119132e+00 -1.040039572473290e+00 -1.000000000000000e+00
 4.214049728505345e+00 -5.286056530608098e-01 -1.000000000000000e+00
 2.992863307070226e+00  2.094395102500000e+00 -4.869243190761569e-01
 1.336495637893677e+00 -8.474521338939667e-03 -2.548076398670673e-02
 1.346326231956482e+00 -3.091249847784638e-03 -4.999729096889496e-01
 1.945297837257385e+00 -2.551015932112932e-03 -4.998712241649628e-01
 1.795216083526611e+00 -2.629937827587128e-01 -3.575076698325574e-05
 4.214255792544135e+00 -5.360362675861862e-01  1.000000000000000e+00
 3.924165443447024e+00 -2.134689197631420e-03  1.000000000000000e+00
 4.608002297444520e+00 -7.229107784082531e-03  1.000000000000000e+00
 1.346326231956482e+00  3.092044265940785e-03  4.999721050262451e-01
 4.743972006207563e+00 -5.814498800499628e-01  1.000000000000000e+00
-3.590150992011262e+00  1.576761899810933e+00  1.000000000000000e+00
-4.189894268860974e+00  1.576213494764133e+00  1.000000000000000e+00
-2.990869821130737e+00  2.094395102500000e+00 -4.859228150220080e-01
-5.977490246349403e-01  2.094395102500000e+00  5.109432504489649e-01
-4.608687162399292e-01  1.115886330604553e+00 -6.111228466033936e-01
 1.926260948181152e+00  5.847474932670593e-01  5.375946164131165e-01
 2.243864297866821e+00  5.238901376724243e-01 -4.996193647384644e-01
-5.554955005645752e+00  9.621262550354004e-01 -6.524594426155090e-01
-5.899033069610596e+00  5.218023434281349e-03  6.454841047525406e-02
-5.924545764923096e+00  9.447069168090820e-01 -3.149197697639465e-01
-5.589102745056152e+00  9.541165232658386e-01  6.175158619880676e-01
-5.922175884246826e+00  9.521256089210510e-01  3.325361609458923e-01
-5.562673568725586e+00  1.092130318284035e-01  5.887086987495422e-01
-2.991980151952686e+00  1.576174635632897e+00  1.000000000000000e+00
-3.292699589325431e+00  1.057209616251167e+00  1.000000000000000e+00
 4.192003786585967e+00  2.094395102500000e+00  5.106626089921620e-01
 5.989873530320983e-01  2.094395102500000e+00  5.109762391166698e-01
 3.296648474044605e+00 -1.050332460052918e+00 -1.000000000000000e+00
 3.604815277171024e+00 -5.259764952873793e-01 -1.000000000000000e+00
 5.568229675292969e+00 -9.566873908042908e-01  6.331222653388977e-01
 3.594811450020901e+00 -1.570444309222939e+00 -1.000000000000000e+00
 2.093514204025269e+00 -1.747887611389160e+00  3.405522704124451e-01
 2.392659382587070e+00 -2.094395102500000e+00  5.114021055996322e-01
 2.093306456148436e+00 -2.094395102500000e+00  1.408252895221427e-02
 2.691620100439449e+00 -2.094395102500000e+00  1.490874291407763e-02
 1.197375216130371e+00  2.094395102500000e+00  5.110352639880111e-01
-2.990920549328113e+00  2.094395102500000e+00  5.122298113469099e-01
-7.482214570045471e-01 -1.054165363311768e+00 -5.007221102714539e-01
-2.691620100439449e+00  2.094395102500000e+00  1.490874291407763e-02
-2.392490786947210e+00  2.094395102500000e+00 -4.869108181775633e-01
 2.990869821130737e+00 -2.094395102500000e+00 -4.859228150220080e-01
 2.990920549328113e+00 -2.094395102500000e+00  5.122298113469099e-01
-3.746183156967163e+00 -1.055236339569092e+00 -5.012789964675903e-01
 2.692793702142858e+00 -2.094395102500000e+00 -1.000000000000000e+00
 1.945297837257385e+00  2.551810350269079e-03  4.998719990253448e-01
 2.564402580261230e+00  1.134668946266174e+00 -5.354447960853577e-01
-3.895638433301718e+00 -1.058838080551995e+00 -1.000000000000000e+00
 5.410873486266649e+00 -1.602772061644062e+00 -1.000000000000000e+00
 5.839420795440674e+00 -1.561564922332764e+00 -4.883324503898621e-01
 5.441247239339115e+00 -2.094395102500000e+00 -4.190584547525290e-01
-4.801076502121563e+00  1.572938595622874e+00  1.000000000000000e+00
-5.168978603108246e+00  1.002871966509611e+00  1.000000000000000e+00
 2.817351222038269e-01  5.380713343620300e-01  1.873975805938244e-02
 7.732779979705811e-01  5.122227072715759e-01  5.019137859344482e-01
 1.236754134297371e-01  1.012236118316650e+00 -4.756496548652649e-01
-5.746902619079400e+00 -6.277717088320669e-01 -1.000000000000000e+00
-6.283185305000000e+00 -6.070463941727519e-01 -4.582976012126166e-01
-5.834313869476318e+00 -2.809962630271912e-01 -3.193846642971039e-01
 1.494064331054688e-01  5.296849608421326e-01  5.003486871719360e-01
-6.283185305000000e+00  2.890766878250332e-03  5.206116332457935e-01
-5.898966312408447e+00 -3.178608715534210e-01  4.653876125812531e-01
-6.283185305000000e+00 -1.495996501785714e+00  1.000000000000000e+00
-6.283185305000000e+00 -1.070956942736301e+00  5.650897553444383e-01
 1.495650053024292e+00 -1.051856756210327e+00 -8.151174988597631e-04
-1.498465687036514e-01 -1.054165363311768e+00 -5.007157325744629e-01
 2.371928393840790e-01  4.304551333189011e-02  5.172087550163269e-01
 4.367091357707977e-01 -1.799455378204584e-03 -5.111064910888672e-01
 8.966994444688458e-01 -2.094395102500000e+00  1.365183756011755e-02
 1.196088021526754e+00 -2.094395102500000e+00  5.109793528110907e-01
 1.196204781532288e+00 -1.748980045318604e+00  8.905913680791855e-03
 8.969502449035645e-01 -1.747824907302856e+00  3.402440249919891e-01
 1.195890349058754e+00 -2.094395102500000e+00 -4.874413284953956e-01
 8.969597816467285e-01 -1.750224947929382e+00 -3.223710358142853e-01
 1.495311617851257e+00 -1.750135183334351e+00 -3.222693502902985e-01
 1.495248079299927e+00 -1.747830390930176e+00  3.403282463550568e-01
 1.495014756064458e+00 -2.094395102500000e+00  1.376651728201168e-02
 1.794563055038452e+00 -1.748876690864563e+00  9.104529395699501e-03
 1.345959186553955e+00 -1.049857020378113e+00  4.993254244327545e-01
-5.870068550109863e+00 -6.018514633178711e-01  3.484508022665977e-02
-6.283185305000000e+00 -8.823817648175415e-01  7.993277358909959e-02
-5.888976097106934e+00  1.325660705566406e+00  3.620202094316483e-02
-2.392659382587070e+00  2.094395102500000e+00  5.114021055996322e-01
 5.982338654421400e-01 -5.198369484088485e-01  1.000000000000000e+00
 8.974567214673747e-01 -1.047709078815000e+00  1.000000000000000e+00
 1.944249153137207e+00 -1.049928545951843e+00  4.993937313556671e-01
 1.645237684249878e+00 -1.053855538368225e+00 -5.006052851676941e-01
 1.794394720008376e+00 -2.094395102500000e+00  5.110929676275447e-01
 1.794197632618695e+00 -2.094395102500000e+00 -4.872946986460387e-01
 5.977490246349403e-01 -2.094395102500000e+00  5.109432504489649e-01
 2.997345100786174e+00 -5.284563299968911e-01 -1.000000000000000e+00
 5.975550587996562e-01 -2.094395102500000e+00 -4.874907383828586e-01
 5.330658912658691e+00 -1.357429623603821e+00  5.176409482955933e-01
 5.179402297104744e+00 -9.930873466277407e-01  1.000000000000000e+00
 5.072385921707173e+00 -2.094395102500000e+00  7.771407344737838e-02
 1.645166158676147e+00 -5.233801007270813e-01  4.996892809867859e-01
 1.645166158676147e+00  5.233801007270813e-01 -4.996884763240814e-01
 1.046841263771057e+00 -5.231759548187256e-01  4.996686279773712e-01
-2.170888423919678e+00 -1.663218736648560e+00 -6.211680173873901e-01
 7.262108922004700e-01  6.065872684121132e-02  5.345994830131531e-01
-6.115585023589812e-04 -2.094395102500000e+00  5.109457000209209e-01
-8.040901996545317e-04 -2.094395102500000e+00 -4.874926403220294e-01
-1.497726738452911e-01  5.231115818023682e-01 -4.996392428874969e-01
-2.996993310737553e+00 -5.178771163852819e-01  1.000000000000000e+00
-3.302361738956555e+00  9.496724775479474e-03  1.000000000000000e+00
-4.192003786585967e+00 -2.094395102500000e+00  5.106626089921620e-01
-4.190153053494773e+00 -2.094395102500000e+00 -4.862012893604859e-01
-5.441247239339115e+00  2.094395102500000e+00 -4.190584547525290e-01
-5.675688459445742e+00  2.094395102500000e+00  2.044034728351558e-01
-6.283185305000000e+00  1.520905954232340e+00  8.572566038970785e-03
-6.283185305000000e+00  1.256514463180413e+00 -4.641902635695419e-01
 5.684786704523809e+00  2.094395102500000e+00 -1.000000000000000e+00
 5.892406226341370e+00  1.701532335741385e+00 -1.000000000000000e+00
 6.283185305000000e+00  2.094395102500000e+00 -1.000000000000000e+00
 5.840509414672852e+00  1.606719017028809e+00 -4.901621043682098e-01
 5.708884028283173e+00  2.094395102500000e+00  6.656559378182887e-03
 6.283185305000000e+00  1.486251736268073e+00  2.057148074400284e-01
 6.283185305000000e+00  1.251642412291615e+00 -4.175598243027664e-01
 6.283185305000000e+00  1.495996501785714e+00 -1.000000000000000e+00
 5.801139082182771e+00  1.214556279485928e+00 -1.000000000000000e+00
-6.283185305000000e+00 -2.094395102500000e+00 -1.000000000000000e+00
-6.283185305000000e+00 -2.094395102500000e+00 -3.333333333333333e-01
-5.684786704523809e+00 -2.094395102500000e+00 -1.000000000000000e+00
-6.283185305000000e+00 -1.486251736268073e+00  2.057148074400284e-01
-5.444799599511608e+00 -2.094395102500000e+00 -4.662278477904664e-01
-5.708884028283173e+00 -2.094395102500000e+00  6.656559378182887e-03
-5.888683077872502e+00 -1.704803421965401e+00 -1.000000000000000e+00
-6.283185305000000e+00 -1.495996501785714e+00 -1.000000000000000e+00
-4.603282033805227e+00  1.517976540693048e-02  1.000000000000000e+00
-4.739428129336697e+00 -5.632733900305963e-01  1.000000000000000e+00
 5.684786704523810e+00  2.094395102500000e+00  1.000000000000000e+00
 5.444134461689679e+00  2.094395102500000e+00  4.770947993051221e-01
 6.283185305000000e+00  2.094395102500000e+00  3.333333333333334e-01
 5.892702357467777e+00  1.699523794275759e+00  1.000000000000000e+00
 1.196742718207602e+00 -1.573396566819820e+00  1.000000000000000e+00
 1.795089009970406e+00 -1.573401657324127e+00  1.000000000000000e+00
-4.505589865550852e+00 -1.036924362697283e+00  1.000000000000000e+00
-5.684786704523810e+00 -2.094395102500000e+00  1.000000000000000e+00
-6.283185305000000e+00 -2.094395102500000e+00  3.333333333333334e-01
-6.283185305000000e+00 -2.094395102500000e+00  1.000000000000000e+00
-6.283185305000000e+00  1.495996501785714e+00  1.000000000000000e+00
-5.888683077872502e+00  1.704803421965401e+00  1.000000000000000e+00
-5.792253756698361e+00  1.223859148973072e+00  1.000000000000000e+00
-5.817413330078125e+00  1.670526981353760e+00  6.660670042037964e-01
-4.198068610891224e+00  1.565046624830011e+00 -1.000000000000000e+00
-3.594263075222444e+00  1.569143503155008e+00 -1.000000000000000e+00
-3.889590903095238e+00  2.094395102500000e+00 -1.000000000000000e+00
 5.892406226341370e+00 -1.701532335741385e+00  1.000000000000000e+00
-4.769328708864221e+00  2.094395102500000e+00  5.346941188813895e-01
-5.400004318140339e+00  1.615371254068220e+00  1.000000000000000e+00
 6.283185305000000e+00  8.975979010714288e-01  1.000000000000000e+00
 6.283185305000000e+00  1.070956942736301e+00  5.650897553444383e-01
 6.283185305000000e+00  5.790544052168488e-01  5.367299723506063e-01
 5.753632243165408e+00  6.083744827655388e-01  1.000000000000000e+00
-2.394068874146323e+00 -1.572537562519749e+00  1.000000000000000e+00
-2.094395101666667e+00 -2.094395102500000e+00  1.000000000000000e+00
-2.692793702142858e+00 -2.094395102500000e+00  1.000000000000000e+00
 5.209372883281141e+00  3.008209919227553e-01  1.000000000000000e+00
 5.177777607686268e+00  9.824455268875819e-01  1.000000000000000e+00
-1.795184920088097e+00  1.576176040779098e+00  1.000000000000000e+00
-6.283185305000000e+00 -8.975979010714288e-01  1.000000000000000e+00
-6.283185305000000e+00 -5.790544052168488e-01  5.367299723506063e-01
-6.283185305000000e+00 -2.935977570843656e-01  3.996258497132926e-02
-5.749925175202613e+00 -6.059753812119389e-01  1.000000000000000e+00
-5.174412692905663e+00 -9.800632973114203e-01  1.000000000000000e+00
-5.203649081894695e+00 -2.955794488549373e-01  1.000000000000000e+00
 5.086388104047618e+00 -2.094395102500000e+00  1.000000000000000e+00
-1.196835513744464e+00  1.573296602949697e+00 -1.000000000000000e+00
-1.496157637990121e+00  1.047442385061805e+00 -1.000000000000000e+00
-8.976466833463513e-01  1.047638954314539e+00 -1.000000000000000e+00
 4.769328708864221e+00 -2.094395102500000e+00  5.346941188813895e-01
 6.283185305000000e+00  2.991993003571429e-01  1.000000000000000e+00
 6.283185305000000e+00 -2.890766878250314e-03  5.206116332457935e-01
 6.283185305000000e+00  2.935977570843656e-01  3.996258497132926e-02
 5.753901263947594e+00 -7.907587219358950e-03  1.000000000000000e+00
 1.495912368255420e+00 -1.055817278335370e+00 -1.000000000000000e+00
 5.755859918625956e+00 -6.203371236747370e-01  1.000000000000000e+00
 6.283185305000000e+00 -2.094395102500000e+00  3.333333333333334e-01
 5.684786704523809e+00 -2.094395102500000e+00  1.000000000000000e+00
 5.210469957931179e+00 -3.196049460372409e-01  1.000000000000000e+00
-3.889590903095238e+00  2.094395102500000e+00  1.000000000000000e+00
-6.283185305000000e+00 -2.991993003571429e-01  1.000000000000000e+00
 3.291192302619048e+00 -2.094395102500000e+00 -1.000000000000000e+00
-5.086388104047618e+00 -2.094395102500000e+00 -1.000000000000000e+00
-4.799710991739333e+00 -2.094395102500000e+00 -4.846209372224290e-01
 6.283185305000000e+00 -2.991993003571429e-01  1.000000000000000e+00
 5.086388104047619e+00  2.094395102500000e+00  1.000000000000000e+00
-4.811229021699329e+00 -1.558984886844655e+00  1.000000000000000e+00
-4.801000190202923e+00 -2.094395102500000e+00  5.045399611391653e-01
-5.086388104047619e+00 -2.094395102500000e+00  1.000000000000000e+00
-1.353974106388378e-05  1.573401857899244e+00 -1.000000000000000e+00
-2.992329929061184e-01  1.047705385558307e+00 -1.000000000000000e+00
 2.991347314614597e-01  1.047714404510619e+00 -1.000000000000000e+00
-6.283185305000000e+00  9.278025494853375e-01  1.261722017352853e-02
-5.746902619079400e+00  6.277717088320669e-01  1.000000000000000e+00
-6.283185305000000e+00  8.975979010714286e-01  1.000000000000000e+00
-6.283185305000000e+00  2.094395102500000e+00  3.333333333333334e-01
