   0.0000000e+00   0.0000000e+00   5.0000000e+01
   0.0000000e+00   5.0000000e+00   5.3772866e+01
   0.0000000e+00   1.0000000e+01   5.7210497e+01
   0.0000000e+00   1.5000000e+01   6.0007443e+01
   0.0000000e+00   2.0000000e+01   6.1915184e+01
   0.0000000e+00   2.5000000e+01   6.2764209e+01
   0.0000000e+00   3.0000000e+01   6.2479077e+01
   0.0000000e+00   3.5000000e+01   6.1085125e+01
   0.0000000e+00   4.0000000e+01   5.8706211e+01
   0.0000000e+00   4.5000000e+01   5.5553712e+01
   0.0000000e+00   5.0000000e+01   5.1907741e+01
   0.0000000e+00   5.5000000e+01   4.8092259e+01
   0.0000000e+00   6.0000000e+01   4.4446288e+01
   0.0000000e+00   6.5000000e+01   4.1293789e+01
   0.0000000e+00   7.0000000e+01   3.8914875e+01
   0.0000000e+00   7.5000000e+01   3.7520923e+01
   0.0000000e+00   8.0000000e+01   3.7235791e+01
   0.0000000e+00   8.5000000e+01   3.8084816e+01
   0.0000000e+00   9.0000000e+01   3.9992557e+01
   0.0000000e+00   9.5000000e+01   4.2789503e+01
   0.0000000e+00   1.0000000e+02   4.6227134e+01
   1.0000000e+01   0.0000000e+00   5.9404564e+01
   1.0000000e+01   5.0000000e+00   6.3177430e+01
   1.0000000e+01   1.0000000e+01   6.6615061e+01
   1.0000000e+01   1.5000000e+01   6.9412007e+01
   1.0000000e+01   2.0000000e+01   7.1319748e+01
   1.0000000e+01   2.5000000e+01   7.2168773e+01
   1.0000000e+01   3.0000000e+01   7.1883641e+01
   1.0000000e+01   3.5000000e+01   7.0489689e+01
   1.0000000e+01   4.0000000e+01   6.8110775e+01
   1.0000000e+01   4.5000000e+01   6.4958276e+01
   1.0000000e+01   5.0000000e+01   6.1312305e+01
   1.0000000e+01   5.5000000e+01   5.7496823e+01
   1.0000000e+01   6.0000000e+01   5.3850852e+01
   1.0000000e+01   6.5000000e+01   5.0698353e+01
   1.0000000e+01   7.0000000e+01   4.8319439e+01
   1.0000000e+01   7.5000000e+01   4.6925487e+01
   1.0000000e+01   8.0000000e+01   4.6640355e+01
   1.0000000e+01   8.5000000e+01   4.7489380e+01
   1.0000000e+01   9.0000000e+01   4.9397121e+01
   1.0000000e+01   9.5000000e+01   5.2194067e+01
   1.0000000e+01   1.0000000e+02   5.5631698e+01
   2.0000000e+01   0.0000000e+00   6.5216904e+01
   2.0000000e+01   5.0000000e+00   6.8989770e+01
   2.0000000e+01   1.0000000e+01   7.2427401e+01
   2.0000000e+01   1.5000000e+01   7.5224347e+01
   2.0000000e+01   2.0000000e+01   7.7132088e+01
   2.0000000e+01   2.5000000e+01   7.7981113e+01
   2.0000000e+01   3.0000000e+01   7.7695982e+01
   2.0000000e+01   3.5000000e+01   7.6302029e+01
   2.0000000e+01   4.0000000e+01   7.3923115e+01
   2.0000000e+01   4.5000000e+01   7.0770616e+01
   2.0000000e+01   5.0000000e+01   6.7124645e+01
   2.0000000e+01   5.5000000e+01   6.3309163e+01
   2.0000000e+01   6.0000000e+01   5.9663192e+01
   2.0000000e+01   6.5000000e+01   5.6510693e+01
   2.0000000e+01   7.0000000e+01   5.4131779e+01
   2.0000000e+01   7.5000000e+01   5.2737827e+01
   2.0000000e+01   8.0000000e+01   5.2452696e+01
   2.0000000e+01   8.5000000e+01   5.3301720e+01
   2.0000000e+01   9.0000000e+01   5.5209461e+01
   2.0000000e+01   9.5000000e+01   5.8006408e+01
   2.0000000e+01   1.0000000e+02   6.1444038e+01
   3.0000000e+01   0.0000000e+00   6.5216904e+01
   3.0000000e+01   5.0000000e+00   6.8989770e+01
   3.0000000e+01   1.0000000e+01   7.2427401e+01
   3.0000000e+01   1.5000000e+01   7.5224347e+01
   3.0000000e+01   2.0000000e+01   7.7132088e+01
   3.0000000e+01   2.5000000e+01   7.7981113e+01
   3.0000000e+01   3.0000000e+01   7.7695982e+01
   3.0000000e+01   3.5000000e+01   7.6302029e+01
   3.0000000e+01   4.0000000e+01   7.3923115e+01
   3.0000000e+01   4.5000000e+01   7.0770616e+01
   3.0000000e+01   5.0000000e+01   6.7124645e+01
   3.0000000e+01   5.5000000e+01   6.3309163e+01
   3.0000000e+01   6.0000000e+01   5.9663192e+01
   3.0000000e+01   6.5000000e+01   5.6510693e+01
   3.0000000e+01   7.0000000e+01   5.4131779e+01
   3.0000000e+01   7.5000000e+01   5.2737827e+01
   3.0000000e+01   8.0000000e+01   5.2452696e+01
   3.0000000e+01   8.5000000e+01   5.3301720e+01
   3.0000000e+01   9.0000000e+01   5.5209461e+01
   3.0000000e+01   9.5000000e+01   5.8006408e+01
   3.0000000e+01   1.0000000e+02   6.1444038e+01
   4.0000000e+01   0.0000000e+00   5.9404564e+01
   4.0000000e+01   5.0000000e+00   6.3177430e+01
   4.0000000e+01   1.0000000e+01   6.6615061e+01
   4.0000000e+01   1.5000000e+01   6.9412007e+01
   4.0000000e+01   2.0000000e+01   7.1319748e+01
   4.0000000e+01   2.5000000e+01   7.2168773e+01
   4.0000000e+01   3.0000000e+01   7.1883641e+01
   4.0000000e+01   3.5000000e+01   7.0489689e+01
   4.0000000e+01   4.0000000e+01   6.8110775e+01
   4.0000000e+01   4.5000000e+01   6.4958276e+01
   4.0000000e+01   5.0000000e+01   6.1312305e+01
   4.0000000e+01   5.5000000e+01   5.7496823e+01
   4.0000000e+01   6.0000000e+01   5.3850852e+01
   4.0000000e+01   6.5000000e+01   5.0698353e+01
   4.0000000e+01   7.0000000e+01   4.8319439e+01
   4.0000000e+01   7.5000000e+01   4.6925487e+01
   4.0000000e+01   8.0000000e+01   4.6640355e+01
   4.0000000e+01   8.5000000e+01   4.7489380e+01
   4.0000000e+01   9.0000000e+01   4.9397121e+01
   4.0000000e+01   9.5000000e+01   5.2194067e+01
   4.0000000e+01   1.0000000e+02   5.5631698e+01
   5.0000000e+01   0.0000000e+00   5.0000000e+01
   5.0000000e+01   5.0000000e+00   5.3772866e+01
   5.0000000e+01   1.0000000e+01   5.7210497e+01
   5.0000000e+01   1.5000000e+01   6.0007443e+01
   5.0000000e+01   2.0000000e+01   6.1915184e+01
   5.0000000e+01   2.5000000e+01   6.2764209e+01
   5.0000000e+01   3.0000000e+01   6.2479077e+01
   5.0000000e+01   3.5000000e+01   6.1085125e+01
   5.0000000e+01   4.0000000e+01   5.8706211e+01
   5.0000000e+01   4.5000000e+01   5.5553712e+01
   5.0000000e+01   5.0000000e+01   5.1907741e+01
   5.0000000e+01   5.5000000e+01   4.8092259e+01
   5.0000000e+01   6.0000000e+01   4.4446288e+01
   5.0000000e+01   6.5000000e+01   4.1293789e+01
   5.0000000e+01   7.0000000e+01   3.8914875e+01
   5.0000000e+01   7.5000000e+01   3.7520923e+01
   5.0000000e+01   8.0000000e+01   3.7235791e+01
   5.0000000e+01   8.5000000e+01   3.8084816e+01
   5.0000000e+01   9.0000000e+01   3.9992557e+01
   5.0000000e+01   9.5000000e+01   4.2789503e+01
   5.0000000e+01   1.0000000e+02   4.6227134e+01
   6.0000000e+01   0.0000000e+00   4.0595436e+01
   6.0000000e+01   5.0000000e+00   4.4368302e+01
   6.0000000e+01   1.0000000e+01   4.7805933e+01
   6.0000000e+01   1.5000000e+01   5.0602879e+01
   6.0000000e+01   2.0000000e+01   5.2510620e+01
   6.0000000e+01   2.5000000e+01   5.3359645e+01
   6.0000000e+01   3.0000000e+01   5.3074513e+01
   6.0000000e+01   3.5000000e+01   5.1680561e+01
   6.0000000e+01   4.0000000e+01   4.9301647e+01
   6.0000000e+01   4.5000000e+01   4.6149148e+01
   6.0000000e+01   5.0000000e+01   4.2503177e+01
   6.0000000e+01   5.5000000e+01   3.8687695e+01
   6.0000000e+01   6.0000000e+01   3.5041724e+01
   6.0000000e+01   6.5000000e+01   3.1889225e+01
   6.0000000e+01   7.0000000e+01   2.9510311e+01
   6.0000000e+01   7.5000000e+01   2.8116359e+01
   6.0000000e+01   8.0000000e+01   2.7831227e+01
   6.0000000e+01   8.5000000e+01   2.8680252e+01
   6.0000000e+01   9.0000000e+01   3.0587993e+01
   6.0000000e+01   9.5000000e+01   3.3384939e+01
   6.0000000e+01   1.0000000e+02   3.6822570e+01
   7.0000000e+01   0.0000000e+00   3.4783096e+01
   7.0000000e+01   5.0000000e+00   3.8555962e+01
   7.0000000e+01   1.0000000e+01   4.1993592e+01
   7.0000000e+01   1.5000000e+01   4.4790539e+01
   7.0000000e+01   2.0000000e+01   4.6698280e+01
   7.0000000e+01   2.5000000e+01   4.7547304e+01
   7.0000000e+01   3.0000000e+01   4.7262173e+01
   7.0000000e+01   3.5000000e+01   4.5868221e+01
   7.0000000e+01   4.0000000e+01   4.3489307e+01
   7.0000000e+01   4.5000000e+01   4.0336808e+01
   7.0000000e+01   5.0000000e+01   3.6690837e+01
   7.0000000e+01   5.5000000e+01   3.2875355e+01
   7.0000000e+01   6.0000000e+01   2.9229384e+01
   7.0000000e+01   6.5000000e+01   2.6076885e+01
   7.0000000e+01   7.0000000e+01   2.3697971e+01
   7.0000000e+01   7.5000000e+01   2.2304018e+01
   7.0000000e+01   8.0000000e+01   2.2018887e+01
   7.0000000e+01   8.5000000e+01   2.2867912e+01
   7.0000000e+01   9.0000000e+01   2.4775653e+01
   7.0000000e+01   9.5000000e+01   2.7572599e+01
   7.0000000e+01   1.0000000e+02   3.1010230e+01
   8.0000000e+01   0.0000000e+00   3.4783096e+01
   8.0000000e+01   5.0000000e+00   3.8555962e+01
   8.0000000e+01   1.0000000e+01   4.1993592e+01
   8.0000000e+01   1.5000000e+01   4.4790539e+01
   8.0000000e+01   2.0000000e+01   4.6698280e+01
   8.0000000e+01   2.5000000e+01   4.7547304e+01
   8.0000000e+01   3.0000000e+01   4.7262173e+01
   8.0000000e+01   3.5000000e+01   4.5868221e+01
   8.0000000e+01   4.0000000e+01   4.3489307e+01
   8.0000000e+01   4.5000000e+01   4.0336808e+01
   8.0000000e+01   5.0000000e+01   3.6690837e+01
   8.0000000e+01   5.5000000e+01   3.2875355e+01
   8.0000000e+01   6.0000000e+01   2.9229384e+01
   8.0000000e+01   6.5000000e+01   2.6076885e+01
   8.0000000e+01   7.0000000e+01   2.3697971e+01
   8.0000000e+01   7.5000000e+01   2.2304018e+01
   8.0000000e+01   8.0000000e+01   2.2018887e+01
   8.0000000e+01   8.5000000e+01   2.2867912e+01
   8.0000000e+01   9.0000000e+01   2.4775653e+01
   8.0000000e+01   9.5000000e+01   2.7572599e+01
   8.0000000e+01   1.0000000e+02   3.1010230e+01
   9.0000000e+01   0.0000000e+00   4.0595436e+01
   9.0000000e+01   5.0000000e+00   4.4368302e+01
   9.0000000e+01   1.0000000e+01   4.7805933e+01
   9.0000000e+01   1.5000000e+01   5.0602879e+01
   9.0000000e+01   2.0000000e+01   5.2510620e+01
   9.0000000e+01   2.5000000e+01   5.3359645e+01
   9.0000000e+01   3.0000000e+01   5.3074513e+01
   9.0000000e+01   3.5000000e+01   5.1680561e+01
   9.0000000e+01   4.0000000e+01   4.9301647e+01
   9.0000000e+01   4.5000000e+01   4.6149148e+01
   9.0000000e+01   5.0000000e+01   4.2503177e+01
   9.0000000e+01   5.5000000e+01   3.8687695e+01
   9.0000000e+01   6.0000000e+01   3.5041724e+01
   9.0000000e+01   6.5000000e+01   3.1889225e+01
   9.0000000e+01   7.0000000e+01   2.9510311e+01
   9.0000000e+01   7.5000000e+01   2.8116359e+01
   9.0000000e+01   8.0000000e+01   2.7831227e+01
   9.0000000e+01   8.5000000e+01   2.8680252e+01
   9.0000000e+01   9.0000000e+01   3.0587993e+01
   9.0000000e+01   9.5000000e+01   3.3384939e+01
   9.0000000e+01   1.0000000e+02   3.6822570e+01
