   0.0000000e+00   0.0000000e+00   5.0000000e+01
   0.0000000e+00   5.0000000e+00   5.0243902e+01
   0.0000000e+00   1.0000000e+01   5.0487805e+01
   0.0000000e+00   1.5000000e+01   5.0731707e+01
   0.0000000e+00   2.0000000e+01   5.0975610e+01
   0.0000000e+00   2.5000000e+01   5.1219512e+01
   0.0000000e+00   3.0000000e+01   5.1463415e+01
   0.0000000e+00   3.5000000e+01   5.1707317e+01
   0.0000000e+00   4.0000000e+01   5.1951220e+01
   0.0000000e+00   4.5000000e+01   5.2195122e+01
   0.0000000e+00   5.0000000e+01   5.2439024e+01
   0.0000000e+00   5.5000000e+01   5.2682927e+01
   0.0000000e+00   6.0000000e+01   5.2926829e+01
   0.0000000e+00   6.5000000e+01   5.3170732e+01
   0.0000000e+00   7.0000000e+01   5.3414634e+01
   0.0000000e+00   7.5000000e+01   5.3658537e+01
   0.0000000e+00   8.0000000e+01   5.3902439e+01
   0.0000000e+00   8.5000000e+01   5.4146341e+01
   0.0000000e+00   9.0000000e+01   5.4390244e+01
   0.0000000e+00   9.5000000e+01   5.4634146e+01
   0.0000000e+00   1.0000000e+02   5.4878049e+01
   1.0000000e+01   0.0000000e+00   5.0243902e+01
   1.0000000e+01   5.0000000e+00   5.0487805e+01
   1.0000000e+01   1.0000000e+01   5.0731707e+01
   1.0000000e+01   1.5000000e+01   5.0975610e+01
   1.0000000e+01   2.0000000e+01   5.1219512e+01
   1.0000000e+01   2.5000000e+01   5.1463415e+01
   1.0000000e+01   3.0000000e+01   5.1707317e+01
   1.0000000e+01   3.5000000e+01   5.1951220e+01
   1.0000000e+01   4.0000000e+01   5.2195122e+01
   1.0000000e+01   4.5000000e+01   5.2439024e+01
   1.0000000e+01   5.0000000e+01   5.2682927e+01
   1.0000000e+01   5.5000000e+01   5.2926829e+01
   1.0000000e+01   6.0000000e+01   5.3170732e+01
   1.0000000e+01   6.5000000e+01   5.3414634e+01
   1.0000000e+01   7.0000000e+01   5.3658537e+01
   1.0000000e+01   7.5000000e+01   5.3902439e+01
   1.0000000e+01   8.0000000e+01   5.4146341e+01
   1.0000000e+01   8.5000000e+01   5.4390244e+01
   1.0000000e+01   9.0000000e+01   5.4634146e+01
   1.0000000e+01   9.5000000e+01   5.4878049e+01
   1.0000000e+01   1.0000000e+02   5.5121951e+01
   2.0000000e+01   0.0000000e+00   5.0487805e+01
   2.0000000e+01   5.0000000e+00   5.0731707e+01
   2.0000000e+01   1.0000000e+01   5.0975610e+01
   2.0000000e+01   1.5000000e+01   5.1219512e+01
   2.0000000e+01   2.0000000e+01   5.1463415e+01
   2.0000000e+01   2.5000000e+01   5.1707317e+01
   2.0000000e+01   3.0000000e+01   5.1951220e+01
   2.0000000e+01   3.5000000e+01   5.2195122e+01
   2.0000000e+01   4.0000000e+01   5.2439024e+01
   2.0000000e+01   4.5000000e+01   5.2682927e+01
   2.0000000e+01   5.0000000e+01   5.2926829e+01
   2.0000000e+01   5.5000000e+01   5.3170732e+01
   2.0000000e+01   6.0000000e+01   5.3414634e+01
   2.0000000e+01   6.5000000e+01   5.3658537e+01
   2.0000000e+01   7.0000000e+01   5.3902439e+01
   2.0000000e+01   7.5000000e+01   5.4146341e+01
   2.0000000e+01   8.0000000e+01   5.4390244e+01
   2.0000000e+01   8.5000000e+01   5.4634146e+01
   2.0000000e+01   9.0000000e+01   5.4878049e+01
   2.0000000e+01   9.5000000e+01   5.5121951e+01
   2.0000000e+01   1.0000000e+02   5.5365854e+01
   3.0000000e+01   0.0000000e+00   5.0731707e+01
   3.0000000e+01   5.0000000e+00   5.0975610e+01
   3.0000000e+01   1.0000000e+01   5.1219512e+01
   3.0000000e+01   1.5000000e+01   5.1463415e+01
   3.0000000e+01   2.0000000e+01   5.1707317e+01
   3.0000000e+01   2.5000000e+01   5.1951220e+01
   3.0000000e+01   3.0000000e+01   5.2195122e+01
   3.0000000e+01   3.5000000e+01   5.2439024e+01
   3.0000000e+01   4.0000000e+01   5.2682927e+01
   3.0000000e+01   4.5000000e+01   5.2926829e+01
   3.0000000e+01   5.0000000e+01   5.3170732e+01
   3.0000000e+01   5.5000000e+01   5.3414634e+01
   3.0000000e+01   6.0000000e+01   5.3658537e+01
   3.0000000e+01   6.5000000e+01   5.3902439e+01
   3.0000000e+01   7.0000000e+01   5.4146341e+01
   3.0000000e+01   7.5000000e+01   5.4390244e+01
   3.0000000e+01   8.0000000e+01   5.4634146e+01
   3.0000000e+01   8.5000000e+01   5.4878049e+01
   3.0000000e+01   9.0000000e+01   5.5121951e+01
   3.0000000e+01   9.5000000e+01   5.5365854e+01
   3.0000000e+01   1.0000000e+02   5.5609756e+01
   4.0000000e+01   0.0000000e+00   5.0975610e+01
   4.0000000e+01   5.0000000e+00   5.1219512e+01
   4.0000000e+01   1.0000000e+01   5.1463415e+01
   4.0000000e+01   1.5000000e+01   5.1707317e+01
   4.0000000e+01   2.0000000e+01   5.1951220e+01
   4.0000000e+01   2.5000000e+01   5.2195122e+01
   4.0000000e+01   3.0000000e+01   5.2439024e+01
   4.0000000e+01   3.5000000e+01   5.2682927e+01
   4.0000000e+01   4.0000000e+01   5.2926829e+01
   4.0000000e+01   4.5000000e+01   5.3170732e+01
   4.0000000e+01   5.0000000e+01   5.3414634e+01
   4.0000000e+01   5.5000000e+01   5.3658537e+01
   4.0000000e+01   6.0000000e+01   5.3902439e+01
   4.0000000e+01   6.5000000e+01   5.4146341e+01
   4.0000000e+01   7.0000000e+01   5.4390244e+01
   4.0000000e+01   7.5000000e+01   5.4634146e+01
   4.0000000e+01   8.0000000e+01   5.4878049e+01
   4.0000000e+01   8.5000000e+01   5.5121951e+01
   4.0000000e+01   9.0000000e+01   5.5365854e+01
   4.0000000e+01   9.5000000e+01   5.5609756e+01
   4.0000000e+01   1.0000000e+02   5.5853659e+01
   5.0000000e+01   0.0000000e+00   5.1219512e+01
   5.0000000e+01   5.0000000e+00   5.1463415e+01
   5.0000000e+01   1.0000000e+01   5.1707317e+01
   5.0000000e+01   1.5000000e+01   5.1951220e+01
   5.0000000e+01   2.0000000e+01   5.2195122e+01
   5.0000000e+01   2.5000000e+01   5.2439024e+01
   5.0000000e+01   3.0000000e+01   5.2682927e+01
   5.0000000e+01   3.5000000e+01   5.2926829e+01
   5.0000000e+01   4.0000000e+01   5.3170732e+01
   5.0000000e+01   4.5000000e+01   5.3414634e+01
   5.0000000e+01   5.0000000e+01   5.3658537e+01
   5.0000000e+01   5.5000000e+01   5.3902439e+01
   5.0000000e+01   6.0000000e+01   5.4146341e+01
   5.0000000e+01   6.5000000e+01   5.4390244e+01
   5.0000000e+01   7.0000000e+01   5.4634146e+01
   5.0000000e+01   7.5000000e+01   5.4878049e+01
   5.0000000e+01   8.0000000e+01   5.5121951e+01
   5.0000000e+01   8.5000000e+01   5.5365854e+01
   5.0000000e+01   9.0000000e+01   5.5609756e+01
   5.0000000e+01   9.5000000e+01   5.5853659e+01
   5.0000000e+01   1.0000000e+02   5.6097561e+01
   6.0000000e+01   0.0000000e+00   5.1463415e+01
   6.0000000e+01   5.0000000e+00   5.1707317e+01
   6.0000000e+01   1.0000000e+01   5.1951220e+01
   6.0000000e+01   1.5000000e+01   5.2195122e+01
   6.0000000e+01   2.0000000e+01   5.2439024e+01
   6.0000000e+01   2.5000000e+01   5.2682927e+01
   6.0000000e+01   3.0000000e+01   5.2926829e+01
   6.0000000e+01   3.5000000e+01   5.3170732e+01
   6.0000000e+01   4.0000000e+01   5.3414634e+01
   6.0000000e+01   4.5000000e+01   5.3658537e+01
   6.0000000e+01   5.0000000e+01   5.3902439e+01
   6.0000000e+01   5.5000000e+01   5.4146341e+01
   6.0000000e+01   6.0000000e+01   5.4390244e+01
   6.0000000e+01   6.5000000e+01   5.4634146e+01
   6.0000000e+01   7.0000000e+01   5.4878049e+01
   6.0000000e+01   7.5000000e+01   5.5121951e+01
   6.0000000e+01   8.0000000e+01   5.5365854e+01
   6.0000000e+01   8.5000000e+01   5.5609756e+01
   6.0000000e+01   9.0000000e+01   5.5853659e+01
   6.0000000e+01   9.5000000e+01   5.6097561e+01
   6.0000000e+01   1.0000000e+02   5.6341463e+01
   7.0000000e+01   0.0000000e+00   5.1707317e+01
   7.0000000e+01   5.0000000e+00   5.1951220e+01
   7.0000000e+01   1.0000000e+01   5.2195122e+01
   7.0000000e+01   1.5000000e+01   5.2439024e+01
   7.0000000e+01   2.0000000e+01   5.2682927e+01
   7.0000000e+01   2.5000000e+01   5.2926829e+01
   7.0000000e+01   3.0000000e+01   5.3170732e+01
   7.0000000e+01   3.5000000e+01   5.3414634e+01
   7.0000000e+01   4.0000000e+01   5.3658537e+01
   7.0000000e+01   4.5000000e+01   5.3902439e+01
   7.0000000e+01   5.0000000e+01   5.4146341e+01
   7.0000000e+01   5.5000000e+01   5.4390244e+01
   7.0000000e+01   6.0000000e+01   5.4634146e+01
   7.0000000e+01   6.5000000e+01   5.4878049e+01
   7.0000000e+01   7.0000000e+01   5.5121951e+01
   7.0000000e+01   7.5000000e+01   5.5365854e+01
   7.0000000e+01   8.0000000e+01   5.5609756e+01
   7.0000000e+01   8.5000000e+01   5.5853659e+01
   7.0000000e+01   9.0000000e+01   5.6097561e+01
   7.0000000e+01   9.5000000e+01   5.6341463e+01
   7.0000000e+01   1.0000000e+02   5.6585366e+01
   8.0000000e+01   0.0000000e+00   5.1951220e+01
   8.0000000e+01   5.0000000e+00   5.2195122e+01
   8.0000000e+01   1.0000000e+01   5.2439024e+01
   8.0000000e+01   1.5000000e+01   5.2682927e+01
   8.0000000e+01   2.0000000e+01   5.2926829e+01
   8.0000000e+01   2.5000000e+01   5.3170732e+01
   8.0000000e+01   3.0000000e+01   5.3414634e+01
   8.0000000e+01   3.5000000e+01   5.3658537e+01
   8.0000000e+01   4.0000000e+01   5.3902439e+01
   8.0000000e+01   4.5000000e+01   5.4146341e+01
   8.0000000e+01   5.0000000e+01   5.4390244e+01
   8.0000000e+01   5.5000000e+01   5.4634146e+01
   8.0000000e+01   6.0000000e+01   5.4878049e+01
   8.0000000e+01   6.5000000e+01   5.5121951e+01
   8.0000000e+01   7.0000000e+01   5.5365854e+01
   8.0000000e+01   7.5000000e+01   5.5609756e+01
   8.0000000e+01   8.0000000e+01   5.5853659e+01
   8.0000000e+01   8.5000000e+01   5.6097561e+01
   8.0000000e+01   9.0000000e+01   5.6341463e+01
   8.0000000e+01   9.5000000e+01   5.6585366e+01
   8.0000000e+01   1.0000000e+02   5.6829268e+01
   9.0000000e+01   0.0000000e+00   5.2195122e+01
   9.0000000e+01   5.0000000e+00   5.2439024e+01
   9.0000000e+01   1.0000000e+01   5.2682927e+01
   9.0000000e+01   1.5000000e+01   5.2926829e+01
   9.0000000e+01   2.0000000e+01   5.3170732e+01
   9.0000000e+01   2.5000000e+01   5.3414634e+01
   9.0000000e+01   3.0000000e+01   5.3658537e+01
   9.0000000e+01   3.5000000e+01   5.3902439e+01
   9.0000000e+01   4.0000000e+01   5.4146341e+01
   9.0000000e+01   4.5000000e+01   5.4390244e+01
   9.0000000e+01   5.0000000e+01   5.4634146e+01
   9.0000000e+01   5.5000000e+01   5.4878049e+01
   9.0000000e+01   6.0000000e+01   5.5121951e+01
   9.0000000e+01   6.5000000e+01   5.5365854e+01
   9.0000000e+01   7.0000000e+01   5.5609756e+01
   9.0000000e+01   7.5000000e+01   5.5853659e+01
   9.0000000e+01   8.0000000e+01   5.6097561e+01
   9.0000000e+01   8.5000000e+01   5.6341463e+01
   9.0000000e+01   9.0000000e+01   5.6585366e+01
   9.0000000e+01   9.5000000e+01   5.6829268e+01
   9.0000000e+01   1.0000000e+02   5.7073171e+01
